# x y z
0.310265 1.078599 -0.085249
0.310839 1.078236 -0.085280
0.311471 1.078080 -0.085281
0.312110 1.077947 -0.085279
0.312749 1.077815 -0.085277
0.313478 1.078009 -0.085285
0.314207 1.078203 -0.085294
0.314948 1.078436 -0.085303
0.315785 1.078995 -0.085320
0.316622 1.079554 -0.085337
0.174168 1.084293 -0.086086
0.168041 1.045739 -0.083120
0.161278 1.003618 -0.079892
0.154641 0.962210 -0.076718
0.155148 0.961178 -0.076572
0.155654 0.960146 -0.076426
0.156176 0.959150 -0.076288
0.156807 0.958416 -0.076215
0.157437 0.957681 -0.076142
0.158090 0.957020 -0.076076
0.158820 0.956610 -0.076038
0.159550 0.956199 -0.076000
0.160313 0.955912 -0.075974
0.161142 0.955874 -0.075971
0.161971 0.955836 -0.075969
0.162818 0.955920 -0.075967
0.163686 0.956163 -0.075963
0.164554 0.956405 -0.075960
0.165419 0.956838 -0.075979
0.166282 0.957433 -0.076017
0.167145 0.958028 -0.076056
0.167985 0.958954 -0.076138
0.307767 1.084798 -0.086564
0.307997 1.082128 -0.086225
0.308356 1.080836 -0.086068
0.308772 1.080166 -0.085994
0.309189 1.079496 -0.085920
0.309732 1.079080 -0.085925
0.310309 1.078731 -0.085952
0.310886 1.078381 -0.085978
0.311518 1.078236 -0.085980
0.312156 1.078113 -0.085979
0.312794 1.077991 -0.085979
0.313520 1.078190 -0.085987
0.314246 1.078389 -0.085996
0.314983 1.078625 -0.086005
0.315817 1.079174 -0.086023
0.316650 1.079723 -0.086041
0.173930 1.082818 -0.086662
0.167896 1.044802 -0.083718
0.161237 1.003275 -0.080515
0.154703 0.962452 -0.077365
0.155212 0.961429 -0.077219
0.155721 0.960407 -0.077073
0.156244 0.959420 -0.076936
0.156875 0.958696 -0.076863
0.157506 0.957973 -0.076790
0.158159 0.957322 -0.076725
0.158888 0.956923 -0.076687
0.159617 0.956524 -0.076648
0.160378 0.956246 -0.076622
0.161205 0.956215 -0.076620
0.162031 0.956184 -0.076618
0.162874 0.956274 -0.076616
0.163739 0.956520 -0.076615
0.164604 0.956765 -0.076613
0.165465 0.957204 -0.076635
0.166325 0.957807 -0.076678
0.167184 0.958411 -0.076721
0.168022 0.959357 -0.076810
0.307685 1.084338 -0.087213
0.307983 1.082026 -0.086919
0.308371 1.080869 -0.086777
0.308799 1.080233 -0.086704
0.309227 1.079597 -0.086630
0.309775 1.079199 -0.086632
0.310354 1.078863 -0.086654
0.310933 1.078526 -0.086675
0.311564 1.078391 -0.086679
0.312202 1.078279 -0.086680
0.312839 1.078167 -0.086681
0.313562 1.078371 -0.086689
0.314284 1.078575 -0.086697
0.315018 1.078814 -0.086707
0.315849 1.079353 -0.086726
0.173691 1.081332 -0.087238
0.167752 1.043858 -0.084316
0.161197 1.002930 -0.081139
0.154765 0.962694 -0.078015
0.155276 0.961681 -0.077869
0.155787 0.960668 -0.077724
0.156312 0.959691 -0.077587
0.156943 0.958978 -0.077514
0.157574 0.958265 -0.077441
0.158228 0.957625 -0.077376
0.158956 0.957237 -0.077337
0.159684 0.956849 -0.077299
0.160444 0.956581 -0.077273
0.161267 0.956557 -0.077271
0.162091 0.956533 -0.077269
0.162931 0.956628 -0.077268
0.163792 0.956877 -0.077268
0.164653 0.957126 -0.077268
0.165511 0.957570 -0.077293
0.166367 0.958182 -0.077341
0.167222 0.958794 -0.077388
0.168057 0.959760 -0.077483
0.307603 1.083878 -0.087858
0.307966 1.081908 -0.087608
0.308383 1.080883 -0.087480
0.308823 1.080285 -0.087409
0.309263 1.079686 -0.087337
0.309815 1.079307 -0.087335
0.310395 1.078984 -0.087351
0.310976 1.078662 -0.087368
0.311607 1.078538 -0.087372
0.312243 1.078437 -0.087376
0.312880 1.078337 -0.087379
0.313599 1.078543 -0.087387
0.314318 1.078750 -0.087395
0.315048 1.078991 -0.087404
0.315875 1.079518 -0.087423
0.173455 1.079813 -0.087813
0.167609 1.042891 -0.084917
0.161158 1.002573 -0.081771
0.154828 0.962938 -0.078676
0.155341 0.961934 -0.078530
0.155853 0.960931 -0.078384
0.156380 0.959964 -0.078247
0.157011 0.959263 -0.078174
0.157643 0.958561 -0.078101
0.158296 0.957932 -0.078035
0.159023 0.957555 -0.077996
0.159750 0.957178 -0.077957
0.160508 0.956920 -0.077931
0.161328 0.956902 -0.077928
0.162148 0.956885 -0.077926
0.162985 0.956984 -0.077926
0.163842 0.957236 -0.077927
0.164698 0.957488 -0.077929
0.165552 0.957938 -0.077957
0.166404 0.958558 -0.078008
0.167256 0.959178 -0.078059
0.307517 1.083420 -0.088490
0.307939 1.081732 -0.088276
0.308383 1.080830 -0.088163
0.308837 1.080282 -0.088097
0.309290 1.079734 -0.088030
0.309844 1.079376 -0.088023
0.310424 1.079068 -0.088032
0.311004 1.078761 -0.088041
0.311634 1.078652 -0.088049
0.312269 1.078565 -0.088056
0.312905 1.078479 -0.088063
0.313619 1.078682 -0.088071
0.314332 1.078885 -0.088078
0.315058 1.079120 -0.088087
0.315881 1.079627 -0.088104
0.173218 1.078294 -0.088387
0.167466 1.041924 -0.085518
0.161119 1.002216 -0.082402
0.154891 0.963181 -0.079337
0.155405 0.962188 -0.079191
0.155919 0.961195 -0.079045
0.156448 0.960238 -0.078908
0.157079 0.959547 -0.078834
0.157711 0.958857 -0.078761
0.158364 0.958239 -0.078695
0.159089 0.957873 -0.078655
0.159815 0.957507 -0.078616
0.160571 0.957258 -0.078589
0.161389 0.957247 -0.078586
0.162206 0.957236 -0.078584
0.163039 0.957341 -0.078584
0.163891 0.957596 -0.078586
0.164744 0.957850 -0.078589
0.165594 0.958306 -0.078620
0.166442 0.958934 -0.078675
0.167290 0.959562 -0.078729
0.307431 1.082962 -0.089121
0.307912 1.081556 -0.088944
0.308383 1.080776 -0.088846
0.308850 1.080279 -0.088785
0.309318 1.079781 -0.088723
0.309874 1.079446 -0.088712
0.310453 1.079153 -0.088713
0.311032 1.078860 -0.088715
0.311661 1.078765 -0.088725
0.312296 1.078693 -0.088736
0.312930 1.078622 -0.088748
0.313639 1.078821 -0.088755
0.314347 1.079020 -0.088761
0.315067 1.079250 -0.088769
0.315887 1.079736 -0.088785
0.170752 1.068164 -0.087700
0.165749 1.034878 -0.085230
0.160300 0.998845 -0.082594
0.154955 0.963421 -0.080001
0.155470 0.962438 -0.079855
0.155986 0.961455 -0.079708
0.156516 0.960508 -0.079571
0.157148 0.959829 -0.079497
0.157779 0.959150 -0.079423
0.158432 0.958544 -0.079356
0.159157 0.958189 -0.079316
0.159882 0.957834 -0.079276
0.160636 0.957595 -0.079248
0.161451 0.957591 -0.079245
0.162265 0.957587 -0.079242
0.163094 0.957696 -0.079242
0.163943 0.957955 -0.079246
0.164791 0.958213 -0.079250
0.165637 0.958675 -0.079283
0.166481 0.959311 -0.079341
0.167324 0.959948 -0.079399
0.164270 1.042535 -0.084742
0.161199 1.016890 -0.083341
0.158077 0.990047 -0.081997
0.155018 0.963655 -0.080673
0.155536 0.962682 -0.080526
0.156053 0.961709 -0.080378
0.156585 0.960773 -0.080239
0.157217 0.960105 -0.080164
0.157849 0.959438 -0.080089
0.158502 0.958844 -0.080022
0.159226 0.958501 -0.079980
0.159950 0.958158 -0.079938
0.160703 0.957929 -0.079909
0.161515 0.957931 -0.079905
0.162327 0.957934 -0.079902
0.163153 0.958050 -0.079902
0.163997 0.958313 -0.079906
0.164841 0.958576 -0.079911
0.165683 0.959045 -0.079946
0.166522 0.959691 -0.080007
0.167362 0.960338 -0.080068
0.157788 1.016906 -0.081785
0.156648 0.998901 -0.081452
0.155854 0.981250 -0.081399
0.155082 0.963888 -0.081345
0.155601 0.962925 -0.081196
0.156120 0.961963 -0.081048
0.156653 0.961037 -0.080908
0.157286 0.960382 -0.080832
0.157919 0.959726 -0.080756
0.158572 0.959144 -0.080687
0.159296 0.958813 -0.080644
0.160019 0.958481 -0.080600
0.160770 0.958262 -0.080570
0.161579 0.958272 -0.080565
0.162388 0.958282 -0.080561
0.163211 0.958403 -0.080561
0.164051 0.958671 -0.080566
0.164891 0.958939 -0.080571
0.165728 0.959416 -0.080608
0.166563 0.960071 -0.080672
0.167399 0.960727 -0.080736
0.154600 0.998441 -0.081069
0.154424 0.985970 -0.081148
0.154785 0.974960 -0.081591
0.155149 0.964124 -0.082023
0.155669 0.963170 -0.081873
0.156189 0.962217 -0.081723
0.156723 0.961301 -0.081582
0.157356 0.960657 -0.081504
0.157990 0.960013 -0.081427
0.158643 0.959443 -0.081357
0.159365 0.959123 -0.081312
0.160087 0.958803 -0.081267
0.160837 0.958594 -0.081235
0.161643 0.958611 -0.081230
0.162449 0.958628 -0.081225
0.163268 0.958756 -0.081224
0.164104 0.959029 -0.081230
0.164939 0.959302 -0.081236
0.165772 0.959787 -0.081274
0.166603 0.960453 -0.081341
0.167434 0.961119 -0.081407
0.154705 0.987139 -0.082597
0.154524 0.978096 -0.082429
0.154870 0.971177 -0.082571
0.155218 0.964362 -0.082707
0.155739 0.963416 -0.082555
0.156260 0.962471 -0.082403
0.156795 0.961564 -0.082261
0.157428 0.960932 -0.082182
0.158061 0.960299 -0.082103
0.158713 0.959740 -0.082032
0.159434 0.959431 -0.081985
0.160154 0.959123 -0.081938
0.160902 0.958924 -0.081905
0.161706 0.958949 -0.081899
0.162510 0.958974 -0.081893
0.163326 0.959109 -0.081892
0.164156 0.959387 -0.081898
0.164987 0.959666 -0.081904
0.165815 0.960159 -0.081943
0.166641 0.960836 -0.082011
0.167467 0.961513 -0.082079
0.154810 0.975837 -0.084125
0.154625 0.970222 -0.083711
0.154954 0.967394 -0.083551
0.155287 0.964599 -0.083391
0.155809 0.963663 -0.083237
0.156331 0.962726 -0.083084
0.156866 0.961828 -0.082940
0.157499 0.961206 -0.082860
0.158132 0.960585 -0.082779
0.158784 0.960037 -0.082706
0.159503 0.959740 -0.082658
0.160222 0.959442 -0.082609
0.160968 0.959254 -0.082574
0.161769 0.959287 -0.082567
0.162570 0.959319 -0.082561
0.163383 0.959461 -0.082559
0.164209 0.959745 -0.082566
0.165035 0.960029 -0.082572
0.165859 0.960531 -0.082612
0.166679 0.961219 -0.082682
0.167500 0.961907 -0.082751
0.154883 0.971907 -0.085104
0.154706 0.967550 -0.084605
0.155033 0.966186 -0.084339
0.155364 0.964830 -0.084075
0.155886 0.963901 -0.083920
0.156408 0.962973 -0.083765
0.156943 0.962083 -0.083619
0.157575 0.961474 -0.083537
0.158208 0.960865 -0.083455
0.158859 0.960329 -0.083380
0.159576 0.960043 -0.083330
0.160292 0.959757 -0.083280
0.161036 0.959578 -0.083243
0.161835 0.959619 -0.083235
0.162634 0.959659 -0.083228
0.163442 0.959808 -0.083226
0.164264 0.960099 -0.083232
0.165086 0.960390 -0.083238
0.165904 0.960900 -0.083279
0.166720 0.961600 -0.083349
0.167535 0.962299 -0.083420
0.154937 0.972074 -0.085779
0.154775 0.967767 -0.085284
0.155108 0.966409 -0.085020
0.155445 0.965057 -0.084759
0.155966 0.964136 -0.084602
0.156488 0.963215 -0.084446
0.157022 0.962333 -0.084298
0.157654 0.961737 -0.084214
0.158287 0.961142 -0.084130
0.158937 0.960618 -0.084054
0.159651 0.960343 -0.084002
0.160365 0.960068 -0.083950
0.161106 0.959899 -0.083912
0.161902 0.959948 -0.083903
0.162698 0.959997 -0.083894
0.163503 0.960153 -0.083891
0.164321 0.960451 -0.083897
0.165138 0.960748 -0.083903
0.165952 0.961268 -0.083944
0.166761 0.961978 -0.084015
0.167571 0.962689 -0.084086
0.160270 1.006987 -0.089356
0.154992 0.972240 -0.086455
0.154844 0.967985 -0.085964
0.155184 0.966631 -0.085702
0.155526 0.965285 -0.085442
0.156047 0.964371 -0.085284
0.156568 0.963457 -0.085126
0.157102 0.962584 -0.084977
0.157734 0.962001 -0.084891
0.158365 0.961418 -0.084806
0.159015 0.960908 -0.084727
0.159726 0.960643 -0.084673
0.160437 0.960379 -0.084620
0.161176 0.960221 -0.084580
0.161969 0.960277 -0.084570
0.162763 0.960334 -0.084560
0.163565 0.960498 -0.084557
0.164378 0.960803 -0.084562
0.165191 0.961107 -0.084568
0.165999 0.961636 -0.084609
0.166803 0.962357 -0.084681
0.160223 1.006613 -0.089998
0.155049 0.972400 -0.087125
0.154915 0.968197 -0.086639
0.155260 0.966850 -0.086379
0.155607 0.965510 -0.086121
0.156128 0.964605 -0.085962
0.156649 0.963700 -0.085803
0.157184 0.962837 -0.085653
0.157816 0.962269 -0.085565
0.158449 0.961702 -0.085478
0.159098 0.961205 -0.085398
0.159806 0.960949 -0.085343
0.160514 0.960693 -0.085289
0.161249 0.960543 -0.085249
0.162040 0.960608 -0.085238
0.162831 0.960672 -0.085227
0.163630 0.960844 -0.085222
0.164438 0.961156 -0.085227
0.165247 0.961468 -0.085232
0.166051 0.962006 -0.085273
0.166850 0.962739 -0.085345
0.160177 1.006239 -0.090640
0.155107 0.972557 -0.087795
0.154986 0.968407 -0.087312
0.155336 0.967067 -0.087055
0.155688 0.965734 -0.086799
0.156210 0.964839 -0.086639
0.156731 0.963944 -0.086479
0.157266 0.963090 -0.086327
0.157900 0.962539 -0.086238
0.158533 0.961987 -0.086149
0.159183 0.961504 -0.086068
0.159887 0.961256 -0.086013
0.160592 0.961008 -0.085958
0.161324 0.960865 -0.085917
0.162112 0.960938 -0.085905
0.162900 0.961011 -0.085893
0.163696 0.961191 -0.085888
0.164500 0.961510 -0.085892
0.165305 0.961829 -0.085896
0.166104 0.962377 -0.085937
0.166897 0.963122 -0.086009
0.160130 1.005866 -0.091281
0.155165 0.972714 -0.088464
0.155058 0.968617 -0.087986
0.155412 0.967284 -0.087730
0.155769 0.965959 -0.087476
0.156291 0.965073 -0.087315
0.156813 0.964187 -0.087154
0.157348 0.963344 -0.087002
0.157983 0.962808 -0.086911
0.158618 0.962273 -0.086820
0.159268 0.961804 -0.086737
0.159969 0.961563 -0.086682
0.160670 0.961323 -0.086627
0.161398 0.961188 -0.086585
0.162184 0.961269 -0.086572
0.162970 0.961350 -0.086559
0.163762 0.961538 -0.086553
0.164562 0.961864 -0.086556
0.165363 0.962190 -0.086560
0.166156 0.962748 -0.086600
0.166945 0.963504 -0.086673
0.160084 1.005483 -0.091905
0.155224 0.972865 -0.089119
0.155129 0.968823 -0.088648
0.155488 0.967499 -0.088398
0.155850 0.966184 -0.088149
0.156373 0.965308 -0.087988
0.156896 0.964433 -0.087828
0.157432 0.963601 -0.087675
0.158067 0.963081 -0.087584
0.158702 0.962561 -0.087493
0.159351 0.962107 -0.087410
0.160049 0.961877 -0.087354
0.160747 0.961646 -0.087298
0.161473 0.961522 -0.087256
0.162255 0.961612 -0.087242
0.163038 0.961703 -0.087227
0.163826 0.961898 -0.087220
0.164622 0.962231 -0.087223
0.165418 0.962564 -0.087226
0.166207 0.963131 -0.087266
0.166989 0.963897 -0.087338
0.160038 1.005100 -0.092528
0.155282 0.973015 -0.089773
0.155201 0.969028 -0.089310
0.155565 0.967714 -0.089065
0.155931 0.966408 -0.088821
0.156455 0.965544 -0.088661
0.156979 0.964679 -0.088501
0.157516 0.963858 -0.088349
0.158151 0.963354 -0.088257
0.158786 0.962850 -0.088166
0.159434 0.962410 -0.088082
0.160130 0.962191 -0.088026
0.160825 0.961971 -0.087970
0.161548 0.961857 -0.087927
0.162327 0.961956 -0.087912
0.163106 0.962056 -0.087896
0.163890 0.962260 -0.087888
0.164682 0.962600 -0.087890
0.165473 0.962940 -0.087891
0.166257 0.963515 -0.087931
0.167033 0.964292 -0.088003
0.159991 1.004717 -0.093151
0.155340 0.973164 -0.090426
0.155272 0.969232 -0.089971
0.155641 0.967929 -0.089731
0.156012 0.966633 -0.089493
0.156537 0.965779 -0.089334
0.157061 0.964926 -0.089174
0.157599 0.964117 -0.089022
0.158234 0.963628 -0.088930
0.158869 0.963140 -0.088839
0.159517 0.962714 -0.088755
0.160210 0.962505 -0.088698
0.160902 0.962296 -0.088642
0.161622 0.962192 -0.088599
0.162398 0.962301 -0.088582
0.163174 0.962410 -0.088565
0.163955 0.962622 -0.088556
0.164742 0.962969 -0.088556
0.165529 0.963316 -0.088557
0.166307 0.963900 -0.088596
0.167078 0.964687 -0.088668
0.159937 1.004329 -0.093763
0.155389 0.973305 -0.091069
0.155335 0.969431 -0.090624
0.155708 0.968141 -0.090393
0.156084 0.966859 -0.090163
0.156611 0.966018 -0.090005
0.157137 0.965177 -0.089846
0.157678 0.964381 -0.089696
0.158314 0.963909 -0.089604
0.158949 0.963437 -0.089512
0.159598 0.963027 -0.089428
0.160288 0.962828 -0.089371
0.160978 0.962630 -0.089314
0.161696 0.962536 -0.089270
0.162469 0.962654 -0.089251
0.163242 0.962773 -0.089233
0.164019 0.962993 -0.089222
0.164802 0.963348 -0.089221
0.165585 0.963702 -0.089221
0.166359 0.964295 -0.089260
0.167124 0.965093 -0.089331
0.159884 1.003942 -0.094375
0.155439 0.973446 -0.091712
0.155398 0.969630 -0.091277
0.155775 0.968354 -0.091054
0.156155 0.967085 -0.090832
0.156685 0.966257 -0.090675
0.157214 0.965429 -0.090519
0.157756 0.964646 -0.090370
0.158393 0.964190 -0.090278
0.159030 0.963735 -0.090185
0.159678 0.963340 -0.090101
0.160366 0.963152 -0.090044
0.161054 0.962964 -0.089986
0.161769 0.962880 -0.089941
0.162539 0.963008 -0.089921
0.163310 0.963135 -0.089900
0.164084 0.963365 -0.089888
0.164863 0.963727 -0.089887
0.165641 0.964089 -0.089885
0.166410 0.964691 -0.089923
0.167171 0.965500 -0.089995
0.159830 1.003554 -0.094988
0.155488 0.973587 -0.092359
0.155460 0.969830 -0.091933
0.155842 0.968567 -0.091717
0.156227 0.967312 -0.091502
0.156758 0.966497 -0.091347
0.157290 0.965681 -0.091192
0.157834 0.964912 -0.091045
0.158472 0.964473 -0.090952
0.159110 0.964035 -0.090860
0.159759 0.963655 -0.090775
0.160444 0.963477 -0.090717
0.161129 0.963299 -0.090660
0.161842 0.963225 -0.090614
0.162610 0.963363 -0.090592
0.163377 0.963500 -0.090569
0.164148 0.963739 -0.090556
0.164923 0.964108 -0.090553
0.165698 0.964478 -0.090550
0.166463 0.965091 -0.090588
0.167218 0.965911 -0.090660
0.159772 1.003166 -0.095606
0.155537 0.973731 -0.093016
0.155522 0.970033 -0.092598
0.155908 0.968784 -0.092386
0.156297 0.967542 -0.092175
0.156831 0.966741 -0.092022
0.157364 0.965940 -0.091869
0.157911 0.965185 -0.091723
0.158550 0.964764 -0.091630
0.159190 0.964342 -0.091537
0.159839 0.963978 -0.091452
0.160522 0.963809 -0.091395
0.161204 0.963641 -0.091337
0.161914 0.963577 -0.091291
0.162680 0.963725 -0.091267
0.163445 0.963873 -0.091243
0.164214 0.964121 -0.091228
0.164985 0.964500 -0.091225
0.165756 0.964879 -0.091221
0.166517 0.965503 -0.091258
0.159715 1.002778 -0.096224
0.155587 0.973875 -0.093674
0.155584 0.970236 -0.093263
0.155974 0.969001 -0.093055
0.156367 0.967773 -0.092848
0.156903 0.966986 -0.092696
0.157439 0.966198 -0.092545
0.157987 0.965458 -0.092401
0.158629 0.965054 -0.092308
0.159270 0.964650 -0.092215
0.159920 0.964302 -0.092130
0.160600 0.964142 -0.092072
0.161279 0.963983 -0.092014
0.161987 0.963928 -0.091967
0.162750 0.964087 -0.091942
0.163513 0.964245 -0.091917
0.164279 0.964504 -0.091901
0.165047 0.964892 -0.091896
0.165814 0.965280 -0.091892
0.166571 0.965915 -0.091929
0.159656 1.002390 -0.096844
0.155636 0.974021 -0.094333
0.155646 0.970442 -0.093928
0.156040 0.969220 -0.093724
0.156436 0.968007 -0.093521
0.156975 0.967233 -0.093371
0.157513 0.966459 -0.093221
0.158064 0.965732 -0.093078
0.158707 0.965345 -0.092985
0.159350 0.964959 -0.092892
0.160001 0.964625 -0.092806
0.160678 0.964474 -0.092749
0.161354 0.964323 -0.092691
0.162059 0.964277 -0.092643
0.162820 0.964446 -0.092617
0.163582 0.964615 -0.092590
0.164345 0.964883 -0.092573
0.165109 0.965281 -0.092568
0.165874 0.965679 -0.092563
0.166626 0.966326 -0.092600
0.163506 1.029833 -0.099937
0.159595 1.002002 -0.097466
0.155684 0.974171 -0.094996
0.155707 0.970651 -0.094597
0.156104 0.969445 -0.094395
0.156504 0.968246 -0.094194
0.157045 0.967485 -0.094046
0.157586 0.966723 -0.093897
0.158140 0.966009 -0.093756
0.158785 0.965639 -0.093661
0.159430 0.965268 -0.093567
0.160082 0.964949 -0.093481
0.160756 0.964805 -0.093423
0.161429 0.964660 -0.093366
0.162132 0.964623 -0.093318
0.162891 0.964801 -0.093290
0.163651 0.964979 -0.093262
0.164412 0.965257 -0.093244
0.165173 0.965666 -0.093239
0.165934 0.966075 -0.093234
0.166684 0.966736 -0.093272
0.163335 1.028908 -0.100520
0.159534 1.001614 -0.098089
0.155733 0.974320 -0.095658
0.155768 0.970861 -0.095265
0.156169 0.969669 -0.095066
0.156572 0.968485 -0.094868
0.157116 0.967736 -0.094721
0.157659 0.966987 -0.094574
0.158215 0.966287 -0.094433
0.158863 0.965932 -0.094338
0.159511 0.965578 -0.094243
0.160164 0.965272 -0.094157
0.160834 0.965135 -0.094098
0.161505 0.964998 -0.094040
0.162204 0.964968 -0.093992
0.162962 0.965155 -0.093963
0.163720 0.965342 -0.093934
0.164478 0.965631 -0.093916
0.165237 0.966051 -0.093910
0.165995 0.966471 -0.093905
0.166742 0.967145 -0.093943
0.163159 1.027969 -0.101102
0.159470 1.001223 -0.098711
0.155780 0.974477 -0.096321
0.155828 0.971077 -0.095934
0.156232 0.969898 -0.095738
0.156639 0.968727 -0.095542
0.157184 0.967990 -0.095396
0.157730 0.967252 -0.095250
0.158289 0.966564 -0.095111
0.158939 0.966225 -0.095015
0.159589 0.965887 -0.094920
0.160244 0.965595 -0.094833
0.160911 0.965464 -0.094775
0.161578 0.965333 -0.094717
0.162274 0.965310 -0.094669
0.163031 0.965507 -0.094639
0.163787 0.965705 -0.094610
0.164543 0.966005 -0.094591
0.165297 0.966438 -0.094586
0.166052 0.966872 -0.094581
0.166795 0.967562 -0.094620
0.162978 1.027017 -0.101683
0.159402 1.000829 -0.099334
0.155826 0.974641 -0.096985
0.155887 0.971300 -0.096604
0.156294 0.970132 -0.096410
0.156704 0.968973 -0.096217
0.157251 0.968245 -0.096073
0.157799 0.967518 -0.095928
0.158359 0.966840 -0.095789
0.159013 0.966517 -0.095693
0.159667 0.966195 -0.095597
0.160323 0.965917 -0.095509
0.160986 0.965791 -0.095453
0.161649 0.965664 -0.095396
0.162342 0.965648 -0.095349
0.163096 0.965857 -0.095319
0.163851 0.966065 -0.095289
0.164604 0.966378 -0.095270
0.165355 0.966827 -0.095266
0.166106 0.967276 -0.095261
0.166845 0.967985 -0.095301
0.162796 1.026065 -0.102265
0.159335 1.000435 -0.099956
0.155873 0.974805 -0.097648
0.155946 0.971523 -0.097273
0.156356 0.970367 -0.097083
0.156769 0.969218 -0.096893
0.157318 0.968501 -0.096749
0.157868 0.967783 -0.096606
0.158430 0.967116 -0.096468
0.159087 0.966810 -0.096371
0.159744 0.966503 -0.096274
0.160402 0.966239 -0.096186
0.161061 0.966117 -0.096131
0.161720 0.965995 -0.096076
0.162410 0.965987 -0.096029
0.163162 0.966206 -0.095998
0.163915 0.966426 -0.095968
0.164665 0.966752 -0.095949
0.165412 0.967216 -0.095945
0.166159 0.967680 -0.095941
0.166895 0.968409 -0.095982
0.162616 1.025105 -0.102844
0.159269 1.000041 -0.100575
0.155923 0.974976 -0.098307
0.156009 0.971753 -0.097938
0.156421 0.970607 -0.097750
0.156836 0.969469 -0.097563
0.157388 0.968760 -0.097421
0.157939 0.968051 -0.097279
0.158503 0.967392 -0.097143
0.159162 0.967101 -0.097046
0.159821 0.966809 -0.096950
0.160480 0.966558 -0.096863
0.161136 0.966444 -0.096809
0.161792 0.966330 -0.096755
0.162479 0.966330 -0.096710
0.163230 0.966562 -0.096681
0.163980 0.966793 -0.096652
0.164728 0.967133 -0.096634
0.165471 0.967615 -0.096631
0.166215 0.968096 -0.096629
0.166947 0.968846 -0.096671
0.162436 1.024140 -0.103422
0.159206 0.999646 -0.101192
0.155975 0.975153 -0.098962
0.156073 0.971987 -0.098600
0.156488 0.970851 -0.098415
0.156906 0.969722 -0.098231
0.157458 0.969020 -0.098091
0.158011 0.968319 -0.097951
0.158577 0.967669 -0.097816
0.159238 0.967391 -0.097720
0.159899 0.967113 -0.097624
0.160558 0.966874 -0.097539
0.161212 0.966770 -0.097487
0.161865 0.966665 -0.097436
0.162550 0.966676 -0.097392
0.163299 0.966920 -0.097365
0.164047 0.967164 -0.097337
0.164792 0.967519 -0.097322
0.165531 0.968019 -0.097321
0.166271 0.968519 -0.097320
0.162257 1.023175 -0.104000
0.159142 0.999252 -0.101809
0.156027 0.975329 -0.099618
0.156138 0.972222 -0.099261
0.156555 0.971095 -0.099080
0.156975 0.969975 -0.098899
0.157529 0.969281 -0.098760
0.158083 0.968587 -0.098622
0.158651 0.967946 -0.098489
0.159313 0.967682 -0.098394
0.159976 0.967417 -0.098299
0.160636 0.967191 -0.098215
0.161287 0.967096 -0.098165
0.161939 0.967001 -0.098116
0.162621 0.967022 -0.098074
0.163367 0.967278 -0.098049
0.164114 0.967534 -0.098023
0.164855 0.967905 -0.098009
0.165591 0.968423 -0.098010
0.166326 0.968941 -0.098011
0.162082 1.022245 -0.104580
0.159077 0.998876 -0.102425
0.156073 0.975507 -0.100271
0.156195 0.972456 -0.099921
0.156615 0.971338 -0.099743
0.157037 0.970228 -0.099565
0.157592 0.969543 -0.099429
0.158147 0.968859 -0.099293
0.158716 0.968228 -0.099162
0.159380 0.967976 -0.099070
0.160045 0.967724 -0.098977
0.160706 0.967511 -0.098895
0.161355 0.967427 -0.098848
0.162005 0.967343 -0.098801
0.162686 0.967376 -0.098762
0.163430 0.967644 -0.098739
0.164174 0.967912 -0.098716
0.164912 0.968297 -0.098704
0.165644 0.968834 -0.098708
0.166376 0.969370 -0.098712
0.161909 1.021323 -0.105159
0.159013 0.998504 -0.103041
0.156117 0.975685 -0.100924
0.156250 0.972690 -0.100580
0.156672 0.971581 -0.100405
0.157096 0.970480 -0.100231
0.157653 0.969806 -0.100098
0.158209 0.969132 -0.099965
0.158779 0.968510 -0.099837
0.159445 0.968271 -0.099746
0.160110 0.968032 -0.099656
0.160772 0.967831 -0.099576
0.161421 0.967759 -0.099532
0.162070 0.967687 -0.099488
0.162749 0.967731 -0.099452
0.163491 0.968012 -0.099431
0.164232 0.968292 -0.099410
0.164968 0.968691 -0.099402
0.165696 0.969246 -0.099408
0.166424 0.969801 -0.099414
0.161736 1.020401 -0.105738
0.158948 0.998132 -0.103658
0.156161 0.975863 -0.101577
0.156306 0.972924 -0.101240
0.156729 0.971825 -0.101068
0.157155 0.970733 -0.100897
0.157713 0.970069 -0.100767
0.158271 0.969404 -0.100636
0.158842 0.968793 -0.100511
0.159509 0.968567 -0.100423
0.160176 0.968340 -0.100335
0.160839 0.968151 -0.100258
0.161487 0.968091 -0.100216
0.162135 0.968031 -0.100175
0.162812 0.968087 -0.100141
0.163551 0.968379 -0.100123
0.164290 0.968672 -0.100105
0.165023 0.969086 -0.100099
0.165747 0.969659 -0.100108
0.166471 0.970232 -0.100117
0.161569 1.019521 -0.106317
0.158886 0.997776 -0.104272
0.156203 0.976031 -0.102227
0.156358 0.973148 -0.101897
0.156784 0.972060 -0.101729
0.157211 0.970979 -0.101562
0.157771 0.970328 -0.101435
0.158331 0.969676 -0.101308
0.158904 0.969078 -0.101186
0.159572 0.968865 -0.101102
0.160240 0.968651 -0.101018
0.160903 0.968476 -0.100945
0.161552 0.968432 -0.100907
0.162201 0.968388 -0.100869
0.162879 0.968460 -0.100838
0.163615 0.968766 -0.100824
0.164352 0.969072 -0.100809
0.165082 0.969503 -0.100806
0.165803 0.970094 -0.100818
0.166525 0.970686 -0.100830
0.161402 1.018643 -0.106896
0.158823 0.997421 -0.104887
0.156244 0.976199 -0.102878
0.156410 0.973372 -0.102554
0.156838 0.972294 -0.102390
0.157267 0.971225 -0.102227
0.157829 0.970586 -0.102103
0.158391 0.969948 -0.101979
0.158966 0.969363 -0.101861
0.159635 0.969163 -0.101781
0.160303 0.968963 -0.101702
0.160967 0.968801 -0.101633
0.161617 0.968774 -0.101598
0.162267 0.968746 -0.101563
0.162945 0.968834 -0.101536
0.163680 0.969154 -0.101525
0.164414 0.969474 -0.101513
0.165142 0.969921 -0.101513
0.165860 0.970532 -0.101529
0.166578 0.971143 -0.101544
0.163140 1.034699 -0.109092
0.161235 1.017768 -0.107475
0.158760 0.997067 -0.105502
0.156285 0.976366 -0.103528
0.156462 0.973595 -0.103211
0.156891 0.972529 -0.103051
0.157322 0.971470 -0.102892
0.157886 0.970845 -0.102771
0.158451 0.970220 -0.102651
0.159028 0.969649 -0.102536
0.159697 0.969462 -0.102461
0.160366 0.969274 -0.102385
0.161031 0.969127 -0.102320
0.161682 0.969116 -0.102289
0.162334 0.969105 -0.102257
0.163012 0.969208 -0.102234
0.163744 0.969542 -0.102226
0.164476 0.969877 -0.102218
0.165201 0.970340 -0.102221
0.165917 0.970970 -0.102239
0.166632 0.971600 -0.102257
0.162896 1.033454 -0.109646
0.161069 1.016926 -0.108056
0.158693 0.996726 -0.106118
0.156317 0.976525 -0.104179
0.156504 0.973810 -0.103868
0.156934 0.972758 -0.103711
0.157367 0.971714 -0.103556
0.157934 0.971105 -0.103439
0.158501 0.970497 -0.103322
0.159081 0.969941 -0.103210
0.159752 0.969766 -0.103140
0.160422 0.969591 -0.103069
0.161089 0.969457 -0.103008
0.161742 0.969462 -0.102980
0.162396 0.969466 -0.102952
0.163075 0.969584 -0.102931
0.163807 0.969933 -0.102926
0.164538 0.970282 -0.102921
0.165261 0.970761 -0.102928
0.165975 0.971409 -0.102949
0.166689 0.972058 -0.102971
0.162651 1.032208 -0.110199
0.160903 1.016083 -0.108638
0.158626 0.996384 -0.106734
0.156349 0.976685 -0.104829
0.156545 0.974025 -0.104524
0.156977 0.972987 -0.104372
0.157412 0.971957 -0.104220
0.157982 0.971365 -0.104106
0.158552 0.970773 -0.103993
0.159135 0.970234 -0.103885
0.159806 0.970071 -0.103819
0.160478 0.969908 -0.103753
0.161146 0.969787 -0.103696
0.161802 0.969807 -0.103671
0.162458 0.969828 -0.103646
0.163139 0.969961 -0.103629
0.163869 0.970324 -0.103627
0.164599 0.970687 -0.103625
0.165321 0.971182 -0.103634
0.166033 0.971848 -0.103659
0.166745 0.972515 -0.103684
0.162407 1.030963 -0.110752
0.160737 1.015240 -0.109219
0.158559 0.996041 -0.107349
0.156381 0.976842 -0.105479
0.156588 0.974239 -0.105180
0.157021 0.973215 -0.105032
0.157457 0.972199 -0.104883
0.158030 0.971624 -0.104773
0.158604 0.971048 -0.104663
0.159189 0.970525 -0.104558
0.159862 0.970374 -0.104497
0.160535 0.970223 -0.104435
0.161205 0.970114 -0.104383
0.161863 0.970150 -0.104361
0.162522 0.970186 -0.104340
0.163203 0.970335 -0.104326
0.163933 0.970712 -0.104326
0.164662 0.971089 -0.104327
0.165384 0.971600 -0.104340
0.166094 0.972286 -0.104368
0.162163 1.029719 -0.111304
0.160572 1.014395 -0.109797
0.158494 0.995695 -0.107962
0.156416 0.976995 -0.106126
0.156632 0.974447 -0.105834
0.157067 0.973437 -0.105688
0.157504 0.972435 -0.105542
0.158081 0.971877 -0.105435
0.158659 0.971318 -0.105327
0.159248 0.970811 -0.105225
0.159922 0.970671 -0.105169
0.160597 0.970531 -0.105112
0.161268 0.970434 -0.105064
0.161929 0.970484 -0.105046
0.162589 0.970533 -0.105028
0.163273 0.970696 -0.105018
0.164003 0.971088 -0.105022
0.164733 0.971481 -0.105026
0.165454 0.972009 -0.105042
0.166164 0.972714 -0.105074
0.161919 1.028474 -0.111855
0.160408 1.013551 -0.110376
0.158429 0.995349 -0.108575
0.156451 0.977147 -0.106773
0.156677 0.974655 -0.106487
0.157113 0.973659 -0.106344
0.157551 0.972670 -0.106202
0.158132 0.972129 -0.106097
0.158714 0.971589 -0.105992
0.159307 0.971098 -0.105893
0.159983 0.970968 -0.105841
0.160658 0.970839 -0.105789
0.161331 0.970753 -0.105745
0.161994 0.970817 -0.105731
0.162657 0.970881 -0.105717
0.163343 0.971058 -0.105710
0.164073 0.971465 -0.105718
0.164803 0.971872 -0.105725
0.165525 0.972418 -0.105744
0.166234 0.973143 -0.105780
0.161675 1.027222 -0.112406
0.160242 1.012700 -0.110953
0.158363 0.994998 -0.109186
0.156485 0.977297 -0.107419
0.156720 0.974862 -0.107138
0.157157 0.973878 -0.106998
0.157596 0.972903 -0.106859
0.158182 0.972380 -0.106756
0.158767 0.971856 -0.106654
0.159364 0.971381 -0.106558
0.160041 0.971262 -0.106510
0.160718 0.971142 -0.106463
0.161393 0.971067 -0.106423
0.162058 0.971144 -0.106413
0.162723 0.971221 -0.106403
0.163410 0.971411 -0.106399
0.164141 0.971834 -0.106410
0.164872 0.972256 -0.106420
0.165594 0.972819 -0.106443
0.166303 0.973565 -0.106482
0.161430 1.025958 -0.112953
0.160075 1.011837 -0.111527
0.158295 0.994640 -0.109795
0.156515 0.977443 -0.108062
0.156760 0.975064 -0.107787
0.157197 0.974094 -0.107650
0.157637 0.973132 -0.107513
0.158227 0.972625 -0.107412
0.158817 0.972118 -0.107311
0.159418 0.971659 -0.107218
0.160097 0.971548 -0.107174
0.160776 0.971437 -0.107131
0.161452 0.971372 -0.107096
0.162119 0.971459 -0.107089
0.162786 0.971547 -0.107083
0.163474 0.971750 -0.107083
0.164206 0.972188 -0.107096
0.164939 0.972626 -0.107109
0.165661 0.973207 -0.107136
0.166371 0.973973 -0.107179
0.161185 1.024693 -0.113501
0.159909 1.010975 -0.112102
0.158227 0.994282 -0.110404
0.156546 0.977590 -0.108705
0.156800 0.975266 -0.108435
0.157238 0.974309 -0.108301
0.157679 0.973361 -0.108167
0.158273 0.972870 -0.108068
0.158867 0.972379 -0.107969
0.159472 0.971936 -0.107877
0.160153 0.971834 -0.107839
0.160833 0.971732 -0.107800
0.161511 0.971676 -0.107769
0.162179 0.971774 -0.107766
0.162848 0.971873 -0.107763
0.163538 0.972088 -0.107766
0.164271 0.972542 -0.107782
0.165005 0.972996 -0.107799
0.165728 0.973594 -0.107828
0.166439 0.974381 -0.107875
0.160945 1.023414 -0.114043
0.159748 1.010104 -0.112672
0.158165 0.993923 -0.111009
0.156583 0.977742 -0.109346
0.156845 0.975474 -0.109082
0.157284 0.974530 -0.108950
0.157725 0.973594 -0.108819
0.158324 0.973119 -0.108721
0.158922 0.972645 -0.108624
0.159531 0.972217 -0.108534
0.160212 0.972123 -0.108499
0.160894 0.972029 -0.108464
0.161573 0.971981 -0.108437
0.162243 0.972088 -0.108438
0.162912 0.972196 -0.108438
0.163603 0.972423 -0.108445
0.164338 0.972893 -0.108464
0.165073 0.973362 -0.108483
0.165797 0.973979 -0.108516
0.166508 0.974788 -0.108566
0.160709 1.022120 -0.114581
0.159592 1.009224 -0.113238
0.158109 0.993562 -0.111612
0.156626 0.977901 -0.109985
0.156897 0.975688 -0.109726
0.157335 0.974755 -0.109597
0.157776 0.973831 -0.109468
0.158379 0.973373 -0.109372
0.158982 0.972915 -0.109275
0.159594 0.972502 -0.109186
0.160276 0.972415 -0.109155
0.160959 0.972327 -0.109124
0.161638 0.972286 -0.109101
0.162308 0.972401 -0.109106
0.162978 0.972517 -0.109110
0.163670 0.972755 -0.109120
0.164406 0.973240 -0.109141
0.165142 0.973725 -0.109163
0.165867 0.974361 -0.109199
0.166579 0.975192 -0.109252
0.160474 1.020827 -0.115119
0.159436 1.008343 -0.113804
0.158053 0.993202 -0.112214
0.156670 0.978060 -0.110624
0.156949 0.975903 -0.110371
0.157387 0.974981 -0.110244
0.157827 0.974067 -0.110117
0.158434 0.973626 -0.110022
0.159041 0.973185 -0.109926
0.159657 0.972788 -0.109839
0.160340 0.972706 -0.109812
0.161023 0.972625 -0.109785
0.161703 0.972591 -0.109765
0.162373 0.972714 -0.109773
0.163044 0.972838 -0.109781
0.163736 0.973086 -0.109795
0.164474 0.973587 -0.109819
0.165211 0.974088 -0.109843
0.165938 0.974743 -0.109882
0.166649 0.975596 -0.109938
0.160245 1.019531 -0.115655
0.159286 1.007464 -0.114369
0.158002 0.992844 -0.112815
0.156718 0.978224 -0.111262
0.157006 0.976122 -0.111013
0.157443 0.975211 -0.110888
0.157883 0.974309 -0.110765
0.158493 0.973882 -0.110670
0.159102 0.973456 -0.110575
0.159721 0.973072 -0.110489
0.160405 0.972997 -0.110466
0.161088 0.972923 -0.110443
0.161769 0.972895 -0.110427
0.162440 0.973028 -0.110438
0.163111 0.973161 -0.110449
0.163804 0.973421 -0.110466
0.164542 0.973939 -0.110492
0.165281 0.974457 -0.110519
0.166008 0.975130 -0.110560
0.166720 0.976007 -0.110620
0.160020 1.018235 -0.116192
0.159140 1.006585 -0.114934
0.157954 0.992487 -0.113416
0.156769 0.978390 -0.111897
0.157065 0.976344 -0.111654
0.157501 0.975444 -0.111532
0.157940 0.974553 -0.111410
0.158552 0.974140 -0.111317
0.159165 0.973727 -0.111223
0.159786 0.973356 -0.111139
0.160470 0.973288 -0.111119
0.161154 0.973220 -0.111100
0.161835 0.973199 -0.111088
0.162507 0.973342 -0.111102
0.163178 0.973485 -0.111116
0.163872 0.973757 -0.111135
0.164611 0.974292 -0.111164
0.165350 0.974827 -0.111193
0.166078 0.975521 -0.111237
0.159794 1.016939 -0.116728
0.158993 1.005705 -0.115499
0.157907 0.992131 -0.114016
0.156820 0.978557 -0.112533
0.157123 0.976566 -0.112295
0.157559 0.975677 -0.112175
0.157998 0.974797 -0.112056
0.158612 0.974398 -0.111964
0.159227 0.973999 -0.111871
0.159850 0.973641 -0.111788
0.160535 0.973579 -0.111772
0.161219 0.973516 -0.111757
0.161901 0.973503 -0.111748
0.162573 0.973656 -0.111765
0.163246 0.973809 -0.111782
0.163940 0.974093 -0.111804
0.164680 0.974646 -0.111835
0.165419 0.975198 -0.111867
0.166148 0.975912 -0.111913
0.159582 1.015655 -0.117264
0.158857 1.004835 -0.116065
0.157866 0.991779 -0.114620
0.156874 0.978722 -0.113176
0.157185 0.976786 -0.112943
0.157620 0.975908 -0.112826
0.158058 0.975039 -0.112709
0.158675 0.974655 -0.112617
0.159292 0.974270 -0.112526
0.159917 0.973926 -0.112444
0.160602 0.973869 -0.112430
0.161287 0.973813 -0.112417
0.161969 0.973805 -0.112410
0.162641 0.973966 -0.112429
0.163313 0.974127 -0.112448
0.164007 0.974423 -0.112472
0.164747 0.974991 -0.112505
0.165487 0.975560 -0.112538
0.166215 0.976293 -0.112586
0.159374 1.014373 -0.117800
0.158725 1.003968 -0.116631
0.157826 0.991427 -0.115226
0.156928 0.978887 -0.113820
0.157247 0.977006 -0.113593
0.157682 0.976139 -0.113478
0.158119 0.975281 -0.113363
0.158739 0.974911 -0.113272
0.159358 0.974542 -0.113182
0.159985 0.974211 -0.113100
0.160670 0.974160 -0.113089
0.161354 0.974109 -0.113077
0.162036 0.974107 -0.113073
0.162708 0.974276 -0.113094
0.163380 0.974444 -0.113115
0.164075 0.974750 -0.113140
0.164814 0.975334 -0.113174
0.165554 0.975919 -0.113209
0.166282 0.976670 -0.113257
0.159165 1.013092 -0.118335
0.158592 1.003100 -0.117198
0.157787 0.991076 -0.115831
0.156983 0.979052 -0.114464
0.157309 0.977226 -0.114242
0.157743 0.976370 -0.114130
0.158181 0.975523 -0.114018
0.158802 0.975168 -0.113927
0.159424 0.974813 -0.113837
0.160053 0.974496 -0.113757
0.160737 0.974450 -0.113748
0.161422 0.974405 -0.113738
0.162104 0.974409 -0.113736
0.162776 0.974585 -0.113759
0.163448 0.974761 -0.113781
0.164142 0.975077 -0.113808
0.164881 0.975678 -0.113843
0.165620 0.976278 -0.113879
0.166348 0.977048 -0.113929
0.158961 1.011839 -0.118874
0.158460 1.002251 -0.117770
0.157746 0.990730 -0.116443
0.157031 0.979209 -0.115117
0.157367 0.977438 -0.114901
0.157803 0.976595 -0.114790
0.158242 0.975760 -0.114680
0.158865 0.975418 -0.114591
0.159488 0.975076 -0.114503
0.160118 0.974770 -0.114424
0.160803 0.974731 -0.114416
0.161487 0.974691 -0.114409
0.162169 0.974702 -0.114409
0.162841 0.974888 -0.114433
0.163513 0.975074 -0.114457
0.164207 0.975403 -0.114485
0.164946 0.976020 -0.114521
0.165684 0.976638 -0.114558
0.166411 0.977427 -0.114611
0.158756 1.010588 -0.119413
0.158328 1.001404 -0.118342
0.157704 0.990384 -0.117057
0.157079 0.979365 -0.115771
0.157425 0.977649 -0.115560
0.157862 0.976819 -0.115451
0.158303 0.975998 -0.115343
0.158927 0.975668 -0.115256
0.159551 0.975338 -0.115169
0.160183 0.975044 -0.115091
0.160868 0.975010 -0.115086
0.161552 0.974977 -0.115081
0.162234 0.974995 -0.115082
0.162907 0.975191 -0.115108
0.163579 0.975387 -0.115134
0.164273 0.975728 -0.115163
0.165010 0.976363 -0.115200
0.165748 0.976999 -0.115237
0.166473 0.977807 -0.115293
0.158552 1.009340 -0.119953
0.158197 1.000558 -0.118915
0.157662 0.990039 -0.117670
0.157127 0.979520 -0.116425
0.157482 0.977860 -0.116220
0.157921 0.977043 -0.116113
0.158363 0.976235 -0.116007
0.158989 0.975917 -0.115921
0.159615 0.975599 -0.115836
0.160247 0.975316 -0.115760
0.160932 0.975289 -0.115757
0.161616 0.975262 -0.115753
0.162298 0.975287 -0.115757
0.162971 0.975493 -0.115784
0.163644 0.975699 -0.115811
0.164338 0.976052 -0.115842
0.165074 0.976705 -0.115880
0.165811 0.977358 -0.115918
0.166535 0.978186 -0.115976
0.158356 1.008125 -0.120497
0.158068 0.999733 -0.119496
0.157618 0.989699 -0.118294
0.157167 0.979664 -0.117093
0.157532 0.978061 -0.116892
0.157975 0.977261 -0.116787
0.158421 0.976470 -0.116682
0.159046 0.976160 -0.116599
0.159671 0.975851 -0.116516
0.160303 0.975577 -0.116443
0.160988 0.975556 -0.116441
0.161673 0.975536 -0.116439
0.162355 0.975568 -0.116444
0.163029 0.975784 -0.116472
0.163703 0.976000 -0.116500
0.164398 0.976366 -0.116531
0.165133 0.977035 -0.116569
0.165869 0.977705 -0.116607
0.166592 0.978552 -0.116668
0.158160 1.006909 -0.121041
0.157940 0.998909 -0.120076
0.157573 0.989358 -0.118918
0.157207 0.979807 -0.117761
0.157582 0.978263 -0.117565
0.158029 0.977479 -0.117461
0.158478 0.976704 -0.117357
0.159103 0.976404 -0.117277
0.159727 0.976103 -0.117196
0.160359 0.975838 -0.117125
0.161044 0.975823 -0.117125
0.161730 0.975809 -0.117125
0.162412 0.975849 -0.117131
0.163087 0.976075 -0.117160
0.163762 0.976301 -0.117189
0.164457 0.976679 -0.117220
0.165192 0.977365 -0.117258
0.165926 0.978052 -0.117296
0.166648 0.978918 -0.117360
0.157967 1.005702 -0.121585
0.157814 0.998090 -0.120656
0.157530 0.989019 -0.119543
0.157245 0.979948 -0.118430
0.157631 0.978459 -0.118239
0.158082 0.977693 -0.118136
0.158535 0.976934 -0.118034
0.159159 0.976642 -0.117955
0.159783 0.976350 -0.117877
0.160415 0.976092 -0.117809
0.161100 0.976085 -0.117810
0.161785 0.976077 -0.117812
0.162469 0.976124 -0.117820
0.163145 0.976360 -0.117849
0.163821 0.976597 -0.117879
0.164516 0.976987 -0.117911
0.165250 0.977691 -0.117949
0.165984 0.978394 -0.117987
0.157788 1.004523 -0.122129
0.157696 0.997288 -0.121238
0.157487 0.988681 -0.120171
0.157277 0.980074 -0.119104
0.157675 0.978640 -0.118918
0.158130 0.977889 -0.118816
0.158588 0.977146 -0.118715
0.159212 0.976861 -0.118639
0.159836 0.976575 -0.118564
0.160467 0.976325 -0.118498
0.161153 0.976323 -0.118501
0.161838 0.976322 -0.118505
0.162522 0.976377 -0.118514
0.163199 0.976626 -0.118544
0.163876 0.976875 -0.118575
0.164572 0.977279 -0.118608
0.165305 0.977997 -0.118645
0.166038 0.978716 -0.118683
0.157609 1.003345 -0.122673
0.157579 0.996486 -0.121820
0.157444 0.988343 -0.120799
0.157310 0.980200 -0.119778
0.157719 0.978821 -0.119597
0.158179 0.978086 -0.119496
0.158642 0.977358 -0.119396
0.159265 0.977080 -0.119323
0.159889 0.976801 -0.119250
0.160520 0.976557 -0.119187
0.161205 0.976562 -0.119192
0.161891 0.976568 -0.119197
0.162575 0.976631 -0.119208
0.163253 0.976892 -0.119240
0.163932 0.977153 -0.119271
0.164628 0.977571 -0.119304
0.165361 0.978304 -0.119342
0.166093 0.979038 -0.119380
0.157439 1.002182 -0.123217
0.157467 0.995697 -0.122402
0.157404 0.988012 -0.121428
0.157341 0.980328 -0.120453
0.157760 0.979002 -0.120278
0.158225 0.978282 -0.120179
0.158693 0.977569 -0.120080
0.159316 0.977297 -0.120009
0.159940 0.977025 -0.119939
0.160571 0.976788 -0.119878
0.161256 0.976800 -0.119885
0.161942 0.976812 -0.119892
0.162627 0.976884 -0.119905
0.163307 0.977158 -0.119937
0.163987 0.977432 -0.119968
0.164684 0.977862 -0.120002
0.165415 0.978610 -0.120040
0.166147 0.979357 -0.120078
0.157285 1.001048 -0.123759
0.157366 0.994929 -0.122984
0.157368 0.987694 -0.122058
0.157369 0.980459 -0.121131
0.157798 0.979185 -0.120962
0.158267 0.978477 -0.120865
0.158739 0.977778 -0.120768
0.159363 0.977512 -0.120700
0.159986 0.977247 -0.120632
0.160618 0.977016 -0.120573
0.161304 0.977035 -0.120582
0.161991 0.977055 -0.120591
0.162676 0.977135 -0.120605
0.163358 0.977423 -0.120637
0.164040 0.977711 -0.120669
0.164738 0.978154 -0.120703
0.165469 0.978912 -0.120741
0.166200 0.979670 -0.120779
0.157131 0.999914 -0.124302
0.157265 0.994161 -0.123566
0.157331 0.987376 -0.122688
0.157397 0.980590 -0.121809
0.157835 0.979367 -0.121646
0.158309 0.978673 -0.121551
0.158785 0.977986 -0.121456
0.159409 0.977727 -0.121391
0.160033 0.977468 -0.121325
0.160665 0.977244 -0.121268
0.161352 0.977271 -0.121279
0.162039 0.977298 -0.121289
0.162725 0.977387 -0.121305
0.163410 0.977688 -0.121337
0.164094 0.977989 -0.121370
0.164793 0.978445 -0.121404
0.165523 0.979214 -0.121442
0.166252 0.979983 -0.121480
0.156997 0.998798 -0.124838
0.157178 0.993402 -0.124141
0.157301 0.987052 -0.123311
0.157424 0.980701 -0.122480
0.157872 0.979528 -0.122323
0.158350 0.978848 -0.122229
0.158832 0.978174 -0.122137
0.159456 0.977920 -0.122073
0.160080 0.977666 -0.122010
0.160712 0.977447 -0.121956
0.161399 0.977480 -0.121968
0.162086 0.977513 -0.121980
0.162773 0.977609 -0.121996
0.163458 0.977922 -0.122029
0.164144 0.978236 -0.122062
0.164844 0.978701 -0.122097
0.165572 0.979476 -0.122135
0.166301 0.980250 -0.122174
0.156882 0.997701 -0.125366
0.157105 0.992650 -0.124709
0.157277 0.986721 -0.123926
0.157450 0.980792 -0.123143
0.157907 0.979668 -0.122991
0.158392 0.979002 -0.122900
0.158879 0.978342 -0.122809
0.159504 0.978091 -0.122748
0.160128 0.977840 -0.122687
0.160760 0.977624 -0.122635
0.161446 0.977662 -0.122648
0.162133 0.977700 -0.122662
0.162819 0.977803 -0.122680
0.163505 0.978126 -0.122713
0.164190 0.978449 -0.122746
0.164890 0.978922 -0.122782
0.165617 0.979698 -0.122821
0.166345 0.980473 -0.122860
0.156768 0.996604 -0.125895
0.157032 0.991899 -0.125276
0.157253 0.986391 -0.124541
0.157475 0.980883 -0.123806
0.157943 0.979809 -0.123660
0.158434 0.979156 -0.123571
0.158927 0.978510 -0.123482
0.159551 0.978262 -0.123423
0.160175 0.978014 -0.123364
0.160807 0.977801 -0.123315
0.161493 0.977844 -0.123329
0.162179 0.977888 -0.123344
0.162865 0.977996 -0.123363
0.163551 0.978329 -0.123397
0.164237 0.978663 -0.123430
0.164936 0.979142 -0.123466
0.165663 0.979919 -0.123506
0.166389 0.980697 -0.123546
0.156663 0.995521 -0.126418
0.156963 0.991156 -0.125839
0.157229 0.986063 -0.125152
0.157495 0.980969 -0.124465
0.157972 0.979944 -0.124325
0.158470 0.979306 -0.124238
0.158971 0.978675 -0.124151
0.159595 0.978430 -0.124094
0.160219 0.978184 -0.124037
0.160851 0.977975 -0.123989
0.161537 0.978023 -0.124004
0.162223 0.978071 -0.124020
0.162909 0.978185 -0.124040
0.163594 0.978522 -0.124075
0.164279 0.978860 -0.124110
0.164977 0.979341 -0.124146
0.165703 0.980113 -0.124187
0.166428 0.980885 -0.124228
0.156563 0.994445 -0.126937
0.156898 0.990420 -0.126398
0.157204 0.985736 -0.125760
0.157510 0.981053 -0.125121
0.157999 0.980077 -0.124988
0.158504 0.979455 -0.124903
0.159012 0.978839 -0.124818
0.159637 0.978596 -0.124762
0.160261 0.978353 -0.124707
0.160894 0.978146 -0.124660
0.161580 0.978199 -0.124676
0.162266 0.978253 -0.124693
0.162951 0.978371 -0.124714
0.163635 0.978709 -0.124751
0.164318 0.979048 -0.124787
0.165015 0.979527 -0.124824
0.165739 0.980290 -0.124866
0.156463 0.993370 -0.127457
0.156833 0.989682 -0.126957
0.157179 0.985409 -0.126368
0.157526 0.981136 -0.125778
0.158025 0.980211 -0.125651
0.158538 0.979604 -0.125568
0.159053 0.979003 -0.125486
0.159678 0.978763 -0.125431
0.160303 0.978522 -0.125376
0.160936 0.978317 -0.125331
0.161622 0.978376 -0.125348
0.162309 0.978435 -0.125366
0.162994 0.978557 -0.125389
0.163676 0.978896 -0.125426
0.164358 0.979236 -0.125463
0.165053 0.979713 -0.125502
0.165775 0.980468 -0.125545
0.156385 0.992344 -0.127977
0.156782 0.988977 -0.127516
0.157161 0.985087 -0.126972
0.157540 0.981198 -0.126429
0.158048 0.980320 -0.126308
0.158568 0.979729 -0.126227
0.159090 0.979144 -0.126147
0.159714 0.978905 -0.126093
0.160339 0.978666 -0.126040
0.160970 0.978464 -0.125995
0.161655 0.978527 -0.126013
0.162339 0.978590 -0.126031
0.163022 0.978717 -0.126053
0.163702 0.979059 -0.126091
0.164383 0.979402 -0.126128
0.165075 0.979874 -0.126168
0.165793 0.980610 -0.126212
0.156312 0.991333 -0.128497
0.156736 0.988280 -0.128074
0.157144 0.984767 -0.127576
0.157553 0.981254 -0.127078
0.158070 0.980423 -0.126963
0.158597 0.979847 -0.126885
0.159126 0.979277 -0.126807
0.159749 0.979041 -0.126754
0.160372 0.978804 -0.126701
0.161003 0.978605 -0.126657
0.161684 0.978672 -0.126675
0.162366 0.978739 -0.126693
0.163046 0.978870 -0.126715
0.163725 0.979216 -0.126752
0.164404 0.979562 -0.126789
0.165093 0.980029 -0.126830
0.165805 0.980743 -0.126876
0.156240 0.990321 -0.129017
0.156689 0.987583 -0.128631
0.157128 0.984446 -0.128179
0.157566 0.981310 -0.127727
0.158092 0.980526 -0.127618
0.158626 0.979966 -0.127542
0.159162 0.979411 -0.127466
0.159784 0.979177 -0.127414
0.160406 0.978942 -0.127362
0.161035 0.978745 -0.127319
0.161713 0.978817 -0.127337
0.162392 0.978888 -0.127355
0.163071 0.979023 -0.127377
0.163748 0.979372 -0.127414
0.164425 0.979722 -0.127451
0.165112 0.980184 -0.127491
0.165817 0.980876 -0.127540
0.156169 0.989397 -0.129548
0.156644 0.986942 -0.129196
0.157112 0.984140 -0.128784
0.157580 0.981339 -0.128372
0.158114 0.980601 -0.128270
0.158653 0.980058 -0.128197
0.159194 0.979522 -0.128125
0.159814 0.979293 -0.128074
0.160434 0.979064 -0.128023
0.161061 0.978871 -0.127981
0.161735 0.978945 -0.127998
0.162410 0.979019 -0.128016
0.163085 0.979155 -0.128037
0.163760 0.979501 -0.128072
0.164434 0.979848 -0.128108
0.165117 0.980298 -0.128148
0.156099 0.988478 -0.130080
0.156600 0.986305 -0.129762
0.157097 0.983836 -0.129389
0.157594 0.981366 -0.129016
0.158135 0.980673 -0.128921
0.158680 0.980149 -0.128852
0.159226 0.979631 -0.128783
0.159844 0.979407 -0.128734
0.160462 0.979184 -0.128685
0.161086 0.978997 -0.128643
0.161757 0.979073 -0.128660
0.162428 0.979149 -0.128676
0.163099 0.979286 -0.128697
0.163770 0.979629 -0.128731
0.164442 0.979972 -0.128765
0.165121 0.980409 -0.128804
0.156029 0.987571 -0.130612
0.156555 0.985676 -0.130328
0.157082 0.983534 -0.129994
0.157608 0.981391 -0.129660
0.158156 0.980743 -0.129571
0.158707 0.980238 -0.129506
0.159258 0.979737 -0.129441
0.159873 0.979520 -0.129393
0.160489 0.979302 -0.129346
0.161110 0.979121 -0.129306
0.161777 0.979200 -0.129321
0.162444 0.979278 -0.129337
0.163111 0.979415 -0.129357
0.163779 0.979754 -0.129389
0.164448 0.980092 -0.129422
0.155965 0.986803 -0.131148
0.156516 0.985140 -0.130893
0.157070 0.983263 -0.130593
0.157624 0.981386 -0.130293
0.158175 0.980781 -0.130213
0.158726 0.980296 -0.130154
0.159277 0.979816 -0.130096
0.159890 0.979611 -0.130051
0.160502 0.979406 -0.130006
0.161120 0.979235 -0.129969
0.161781 0.979313 -0.129984
0.162442 0.979391 -0.129999
0.163104 0.979524 -0.130018
0.163768 0.979850 -0.130048
0.155901 0.986035 -0.131684
0.156477 0.984604 -0.131459
0.157058 0.982993 -0.131192
0.157640 0.981381 -0.130925
0.158194 0.980818 -0.130855
0.158745 0.980354 -0.130802
0.159297 0.979895 -0.130750
0.159907 0.979702 -0.130709
0.160516 0.979509 -0.130667
0.161131 0.979349 -0.130633
0.161786 0.979426 -0.130647
0.162441 0.979503 -0.130662
0.163097 0.979633 -0.130679
0.157047 0.982727 -0.131789
0.157655 0.981368 -0.131553
0.158212 0.980848 -0.131491
0.158763 0.980408 -0.131446
0.159316 0.979973 -0.131400
0.159921 0.979792 -0.131363
0.160526 0.979611 -0.131325
0.161137 0.979461 -0.131293
0.161786 0.979536 -0.131307
0.162435 0.979611 -0.131321
0.163085 0.979736 -0.131337
0.158227 0.980854 -0.132111
0.158779 0.980448 -0.132072
0.159331 0.980045 -0.132034
0.159928 0.979875 -0.132002
0.160526 0.979705 -0.131970
0.161128 0.979564 -0.131943
0.161770 0.979633 -0.131956
0.162412 0.979701 -0.131969
0.158794 0.980487 -0.132698
0.159346 0.980118 -0.132667
0.159936 0.979959 -0.132641
0.160525 0.979800 -0.132615
0.161120 0.979667 -0.132593
