# x y z
0.008230 0.824477 0.176289
0.008850 0.824264 0.176182
0.009458 0.824088 0.176118
0.010060 0.823930 0.176073
0.010662 0.823771 0.176029
0.011247 0.823617 0.175998
0.011828 0.823465 0.175971
0.012409 0.823312 0.175945
0.012980 0.823260 0.175949
0.013550 0.823220 0.175957
0.014120 0.823180 0.175965
0.014704 0.823149 0.175952
0.015289 0.823117 0.175940
0.015876 0.823094 0.175923
0.016491 0.823144 0.175856
0.017107 0.823194 0.175790
0.002526 0.827806 0.176447
0.003180 0.827442 0.176476
0.003828 0.827104 0.176472
0.004463 0.826811 0.176409
0.005098 0.826517 0.176346
0.005732 0.826250 0.176287
0.006363 0.826012 0.176235
0.006994 0.825775 0.176183
0.007620 0.825548 0.176098
0.008243 0.825328 0.175989
0.008865 0.825108 0.175881
0.009475 0.824930 0.175818
0.010078 0.824773 0.175777
0.010681 0.824615 0.175736
0.011268 0.824465 0.175712
0.011851 0.824316 0.175691
0.012433 0.824168 0.175671
0.013004 0.824132 0.175682
0.013573 0.824111 0.175696
0.014142 0.824089 0.175711
0.014719 0.824084 0.175701
0.015297 0.824079 0.175690
0.015875 0.824082 0.175674
0.016456 0.824164 0.175606
0.017037 0.824247 0.175539
0.017638 0.824319 0.175460
0.002517 0.828757 0.176192
0.003173 0.828375 0.176220
0.003824 0.828020 0.176211
0.004463 0.827711 0.176140
0.005102 0.827402 0.176069
0.005738 0.827124 0.176004
0.006371 0.826882 0.175946
0.007003 0.826639 0.175889
0.007631 0.826405 0.175801
0.008256 0.826178 0.175690
0.008880 0.825951 0.175580
0.009491 0.825772 0.175519
0.010096 0.825616 0.175481
0.010701 0.825459 0.175444
0.011290 0.825312 0.175425
0.011874 0.825168 0.175411
0.012458 0.825023 0.175397
0.013028 0.825004 0.175415
0.013595 0.825001 0.175436
0.014163 0.824998 0.175458
0.014734 0.825019 0.175449
0.015305 0.825040 0.175440
0.015874 0.825070 0.175425
0.016420 0.825185 0.175356
0.016967 0.825300 0.175287
0.017541 0.825395 0.175204
0.002519 0.829753 0.175957
0.003170 0.829320 0.175967
0.003818 0.828928 0.175944
0.004462 0.828605 0.175866
0.005105 0.828282 0.175788
0.005745 0.827995 0.175718
0.006379 0.827749 0.175656
0.007013 0.827503 0.175594
0.007643 0.827265 0.175504
0.008270 0.827033 0.175392
0.008897 0.826800 0.175281
0.009510 0.826622 0.175223
0.010117 0.826469 0.175190
0.010723 0.826316 0.175157
0.011314 0.826175 0.175145
0.011901 0.826037 0.175138
0.012487 0.825899 0.175132
0.013056 0.825900 0.175157
0.013623 0.825919 0.175187
0.014190 0.825937 0.175216
0.014742 0.825998 0.175214
0.015294 0.826059 0.175211
0.015842 0.826136 0.175206
0.016354 0.826369 0.175184
0.016866 0.826602 0.175162
0.017412 0.826786 0.175115
0.018095 0.826771 0.174965
0.002563 0.830917 0.175796
0.003181 0.830312 0.175728
0.003810 0.829806 0.175655
0.004458 0.829474 0.175574
0.005106 0.829143 0.175493
0.005749 0.828853 0.175421
0.006386 0.828610 0.175359
0.007024 0.828367 0.175297
0.007657 0.828132 0.175208
0.008288 0.827901 0.175100
0.008919 0.827671 0.174991
0.009536 0.827501 0.174939
0.010146 0.827360 0.174915
0.010757 0.827219 0.174890
0.011352 0.827094 0.174889
0.011942 0.826973 0.174894
0.012533 0.826853 0.174899
0.013103 0.826884 0.174936
0.013671 0.826934 0.174976
0.014239 0.826984 0.175017
0.014726 0.827136 0.175038
0.015214 0.827289 0.175059
0.015700 0.827491 0.175097
0.016177 0.828153 0.175298
0.016655 0.828816 0.175500
0.017168 0.829332 0.175640
0.017823 0.829255 0.175533
0.002607 0.832081 0.175636
0.003192 0.831303 0.175489
0.003802 0.830684 0.175365
0.004454 0.830344 0.175281
0.005106 0.830003 0.175198
0.005752 0.829710 0.175125
0.006393 0.829471 0.175062
0.007034 0.829232 0.175000
0.007672 0.828999 0.174913
0.008307 0.828770 0.174807
0.008942 0.828541 0.174701
0.009562 0.828380 0.174656
0.010176 0.828251 0.174640
0.010790 0.828122 0.174623
0.011389 0.828013 0.174633
0.011984 0.827910 0.174650
0.012578 0.827807 0.174666
0.013150 0.827867 0.174714
0.013719 0.827948 0.174766
0.014287 0.828030 0.174818
0.014711 0.828274 0.174862
0.015133 0.828519 0.174906
0.015557 0.828845 0.174987
0.016000 0.829938 0.175412
0.016443 0.831031 0.175837
0.016923 0.831878 0.176165
0.017550 0.831738 0.176100
0.002062 0.834029 0.175623
0.002626 0.833127 0.175425
0.003190 0.832225 0.175227
0.003788 0.831526 0.175070
0.004444 0.831178 0.174984
0.005101 0.830831 0.174897
0.005752 0.830536 0.174821
0.006396 0.830300 0.174758
0.007040 0.830065 0.174695
0.007681 0.829834 0.174609
0.008319 0.829607 0.174505
0.008957 0.829380 0.174401
0.009581 0.829227 0.174361
0.010198 0.829110 0.174352
0.010816 0.828992 0.174343
0.011418 0.828899 0.174363
0.012016 0.828814 0.174390
0.012614 0.828728 0.174418
0.013187 0.828819 0.174477
0.013756 0.828932 0.174541
0.014325 0.829045 0.174604
0.014700 0.829367 0.174669
0.015072 0.829691 0.174734
0.015449 0.830124 0.174851
0.015868 0.831596 0.175473
0.016288 0.833068 0.176095
0.016724 0.838472 0.177444
0.017229 0.859723 0.181726
0.002037 0.834899 0.175322
0.002601 0.833961 0.175124
0.003164 0.833024 0.174926
0.003764 0.832301 0.174767
0.004425 0.831950 0.174676
0.005087 0.831600 0.174585
0.005742 0.831305 0.174506
0.006390 0.831072 0.174441
0.007038 0.830839 0.174376
0.007682 0.830612 0.174288
0.008322 0.830388 0.174184
0.008961 0.830164 0.174080
0.009587 0.830019 0.174044
0.010206 0.829911 0.174041
0.010825 0.829804 0.174038
0.011431 0.829727 0.174066
0.012032 0.829660 0.174104
0.012633 0.829592 0.174141
0.013206 0.829713 0.174213
0.013775 0.829858 0.174289
0.014345 0.830004 0.174365
0.014697 0.830380 0.174445
0.015047 0.830759 0.174525
0.015403 0.831268 0.174671
0.015818 0.833026 0.175440
0.016233 0.834785 0.176209
0.016608 0.852352 0.180082
0.016821 0.933610 0.196457
0.002012 0.835768 0.175022
0.002575 0.834795 0.174823
0.003138 0.833823 0.174625
0.003739 0.833076 0.174464
0.004406 0.832723 0.174368
0.005073 0.832369 0.174272
0.005733 0.832074 0.174190
0.006385 0.831844 0.174123
0.007037 0.831614 0.174056
0.007683 0.831389 0.173968
0.008324 0.831169 0.173864
0.008965 0.830948 0.173760
0.009593 0.830811 0.173728
0.010214 0.830713 0.173730
0.010835 0.830615 0.173732
0.011443 0.830555 0.173770
0.012048 0.830506 0.173817
0.012652 0.830456 0.173864
0.013225 0.830608 0.173948
0.013795 0.830785 0.174037
0.014364 0.830963 0.174125
0.014694 0.831393 0.174221
0.015021 0.831826 0.174316
0.015356 0.832412 0.174490
0.015768 0.834457 0.175407
0.016179 0.836503 0.176324
0.016492 0.866231 0.182719
0.016412 1.007496 0.211188
0.001974 0.836552 0.174643
0.002539 0.835545 0.174457
0.003103 0.834539 0.174271
0.003707 0.833771 0.174118
0.004378 0.833418 0.174021
0.005049 0.833065 0.173924
0.005713 0.832771 0.173841
0.006369 0.832544 0.173774
0.007024 0.832317 0.173707
0.007674 0.832096 0.173620
0.008319 0.831881 0.173519
0.008964 0.831666 0.173417
0.009595 0.831538 0.173390
0.010220 0.831452 0.173398
0.010844 0.831365 0.173406
0.011456 0.831322 0.173451
0.012065 0.831291 0.173506
0.012673 0.831260 0.173562
0.013249 0.831440 0.173656
0.013820 0.831648 0.173756
0.014392 0.831855 0.173855
0.014723 0.832317 0.173958
0.015053 0.832782 0.174061
0.015250 0.835616 0.174689
0.014179 0.861131 0.180340
0.013109 0.886646 0.185990
0.012487 0.936645 0.196463
0.013670 1.085292 0.226363
0.001924 0.837249 0.174185
0.002491 0.836211 0.174025
0.003059 0.835173 0.173866
0.003666 0.834386 0.173731
0.004340 0.834036 0.173636
0.005015 0.833686 0.173541
0.005683 0.833395 0.173460
0.006342 0.833171 0.173395
0.007001 0.832947 0.173329
0.007656 0.832732 0.173246
0.008307 0.832526 0.173149
0.008958 0.832319 0.173052
0.009594 0.832202 0.173030
0.010223 0.832128 0.173044
0.010852 0.832054 0.173058
0.011469 0.832029 0.173109
0.012083 0.832017 0.173172
0.012697 0.832005 0.173234
0.013277 0.832212 0.173337
0.013852 0.832446 0.173445
0.014428 0.832680 0.173554
0.014786 0.833152 0.173657
0.015141 0.833626 0.173760
0.015082 0.840882 0.175269
0.011052 0.913048 0.190239
0.007023 0.985215 0.205209
0.004591 1.063593 0.221312
0.008596 1.166996 0.241982
0.001873 0.837947 0.173726
0.002444 0.836877 0.173594
0.003014 0.835807 0.173461
0.003624 0.835001 0.173343
0.004303 0.834654 0.173250
0.004981 0.834307 0.173157
0.005652 0.834019 0.173078
0.006315 0.833798 0.173015
0.006978 0.833577 0.172951
0.007638 0.833369 0.172871
0.008295 0.833170 0.172779
0.008952 0.832971 0.172687
0.009593 0.832866 0.172671
0.010227 0.832804 0.172690
0.010860 0.832743 0.172710
0.011483 0.832735 0.172768
0.012102 0.832743 0.172837
0.012721 0.832750 0.172905
0.013305 0.832983 0.173017
0.013884 0.833244 0.173135
0.014464 0.833506 0.173253
0.014848 0.833987 0.173356
0.015230 0.834470 0.173459
0.014915 0.846147 0.175849
0.007926 0.964966 0.200139
0.000937 1.083784 0.224428
-0.003305 1.190541 0.246162
0.003521 1.248700 0.257601
0.001801 0.838472 0.173249
0.002384 0.837425 0.173146
0.002967 0.836377 0.173043
0.003586 0.835586 0.172944
0.004268 0.835239 0.172852
0.004950 0.834892 0.172761
0.005625 0.834605 0.172683
0.006293 0.834385 0.172621
0.006960 0.834164 0.172559
0.007625 0.833958 0.172481
0.008287 0.833763 0.172391
0.008949 0.833567 0.172302
0.009595 0.833466 0.172288
0.010234 0.833409 0.172311
0.010873 0.833352 0.172333
0.011501 0.833352 0.172394
0.012127 0.833366 0.172465
0.012752 0.833381 0.172535
0.013342 0.833624 0.172653
0.013928 0.833896 0.172776
0.014513 0.834168 0.172900
0.014935 0.834634 0.172999
0.015356 0.835103 0.173097
0.014897 0.848112 0.175736
0.006020 0.981148 0.202686
-0.002857 1.114184 0.229636
-0.008261 1.229684 0.252970
0.000330 1.274527 0.261732
0.001717 0.838902 0.172762
0.002317 0.837908 0.172690
0.002917 0.836913 0.172618
0.003549 0.836154 0.172539
0.004235 0.835806 0.172448
0.004921 0.835458 0.172357
0.005600 0.835170 0.172280
0.006273 0.834949 0.172219
0.006945 0.834728 0.172159
0.007614 0.834522 0.172082
0.008281 0.834327 0.171993
0.008948 0.834132 0.171905
0.009599 0.834031 0.171893
0.010244 0.833974 0.171917
0.010889 0.833917 0.171940
0.011523 0.833917 0.172001
0.012155 0.833933 0.172072
0.012787 0.833949 0.172143
0.013384 0.834192 0.172263
0.013977 0.834465 0.172390
0.014570 0.834738 0.172518
0.015037 0.835178 0.172610
0.015503 0.835619 0.172702
0.014963 0.848243 0.175237
0.004793 0.977478 0.201149
-0.005378 1.106713 0.227061
-0.011584 1.220046 0.249755
-0.001815 1.269312 0.259480
0.001633 0.839332 0.172275
0.002250 0.838390 0.172233
0.002868 0.837449 0.172192
0.003512 0.836723 0.172133
0.004202 0.836373 0.172043
0.004891 0.836024 0.171953
0.005575 0.835734 0.171878
0.006252 0.835513 0.171818
0.006930 0.835292 0.171758
0.007604 0.835086 0.171683
0.008275 0.834891 0.171596
0.008946 0.834696 0.171509
0.009604 0.834595 0.171497
0.010254 0.834539 0.171522
0.010904 0.834483 0.171547
0.011545 0.834483 0.171608
0.012184 0.834500 0.171679
0.012822 0.834516 0.171750
0.013426 0.834761 0.171874
0.014026 0.835035 0.172004
0.014626 0.835309 0.172135
0.015139 0.835721 0.172221
0.015651 0.836134 0.172307
0.015029 0.848374 0.174738
0.003565 0.973807 0.199612
-0.007899 1.099241 0.224486
-0.014907 1.210409 0.246540
-0.003959 1.264097 0.257229
0.001524 0.839607 0.171796
0.002161 0.838767 0.171773
0.002797 0.837927 0.171750
0.003454 0.837265 0.171703
0.004145 0.836914 0.171614
0.004836 0.836562 0.171525
0.005522 0.836270 0.171450
0.006203 0.836045 0.171391
0.006883 0.835820 0.171332
0.007560 0.835611 0.171258
0.008235 0.835415 0.171173
0.008910 0.835219 0.171088
0.009573 0.835115 0.171077
0.010230 0.835056 0.171102
0.010887 0.834997 0.171127
0.011535 0.834995 0.171186
0.012181 0.835009 0.171256
0.012826 0.835024 0.171325
0.013441 0.835263 0.171449
0.014052 0.835532 0.171579
0.014663 0.835800 0.171710
0.015194 0.836203 0.171798
0.015725 0.836608 0.171886
0.015406 0.845577 0.173677
0.006954 0.936530 0.191765
-0.001499 1.027482 0.209852
-0.006707 1.117919 0.227789
0.001153 1.206278 0.245117
0.009014 1.294637 0.262444
0.001409 0.839841 0.171321
0.002065 0.839116 0.171312
0.002721 0.838390 0.171304
0.003390 0.837801 0.171267
0.004082 0.837447 0.171178
0.004774 0.837094 0.171090
0.005462 0.836798 0.171016
0.006145 0.836568 0.170958
0.006828 0.836337 0.170900
0.007508 0.836126 0.170827
0.008187 0.835928 0.170744
0.008865 0.835730 0.170660
0.009533 0.835624 0.170650
0.010197 0.835560 0.170674
0.010861 0.835497 0.170699
0.011516 0.835492 0.170757
0.012169 0.835504 0.170824
0.012822 0.835515 0.170892
0.013449 0.835747 0.171014
0.014071 0.836008 0.171144
0.014694 0.836269 0.171274
0.015238 0.836669 0.171366
0.015781 0.837069 0.171458
0.015869 0.841982 0.172462
0.011602 0.890086 0.182196
0.007335 0.938191 0.191930
0.004635 1.002833 0.204802
0.008245 1.134112 0.230315
0.011856 1.265391 0.255828
0.001294 0.840074 0.170845
0.001969 0.839464 0.170851
0.002644 0.838853 0.170858
0.003326 0.838336 0.170830
0.004019 0.837981 0.170743
0.004712 0.837626 0.170656
0.005401 0.837326 0.170582
0.006087 0.837091 0.170524
0.006772 0.836855 0.170467
0.007456 0.836640 0.170395
0.008138 0.836441 0.170314
0.008820 0.836241 0.170233
0.009494 0.836132 0.170223
0.010164 0.836064 0.170247
0.010835 0.835997 0.170271
0.011497 0.835989 0.170327
0.012158 0.835998 0.170393
0.012819 0.836006 0.170458
0.013456 0.836232 0.170580
0.014090 0.836485 0.170708
0.014725 0.836739 0.170837
0.015281 0.837134 0.170934
0.015836 0.837531 0.171030
0.016331 0.838387 0.171248
0.016250 0.843643 0.172628
0.016169 0.848899 0.174008
0.015977 0.887748 0.181814
0.015337 1.061947 0.215513
0.014698 1.236146 0.249213
0.005517 0.968099 0.195258
0.001238 0.840542 0.170416
0.001914 0.839936 0.170417
0.002590 0.839329 0.170417
0.003272 0.838814 0.170386
0.003965 0.838458 0.170300
0.004657 0.838102 0.170214
0.005346 0.837803 0.170142
0.006032 0.837566 0.170086
0.006718 0.837330 0.170029
0.007403 0.837116 0.169959
0.008086 0.836919 0.169878
0.008770 0.836721 0.169798
0.009449 0.836611 0.169786
0.010125 0.836543 0.169807
0.010802 0.836474 0.169829
0.011472 0.836465 0.169880
0.012141 0.836471 0.169939
0.012809 0.836478 0.169999
0.013459 0.836693 0.170117
0.014107 0.836935 0.170242
0.014755 0.837176 0.170368
0.015324 0.837566 0.170468
0.015893 0.837957 0.170568
0.016428 0.838502 0.170724
0.016635 0.840517 0.171417
0.016842 0.842533 0.172109
0.016809 0.879357 0.179451
0.015813 1.056431 0.213582
0.014816 1.233505 0.247714
0.005523 0.968349 0.194691
0.001186 0.841028 0.169991
0.001862 0.840417 0.169984
0.002537 0.839806 0.169978
0.003219 0.839288 0.169942
0.003911 0.838931 0.169857
0.004603 0.838575 0.169772
0.005292 0.838275 0.169701
0.005978 0.838038 0.169646
0.006664 0.837802 0.169591
0.007349 0.837589 0.169522
0.008035 0.837394 0.169441
0.008720 0.837199 0.169361
0.009403 0.837089 0.169348
0.010086 0.837019 0.169367
0.010768 0.836950 0.169385
0.011446 0.836938 0.169431
0.012123 0.836944 0.169484
0.012799 0.836949 0.169537
0.013462 0.837153 0.169652
0.014123 0.837382 0.169774
0.014784 0.837611 0.169897
0.015368 0.837995 0.170000
0.015951 0.838381 0.170103
0.016497 0.838902 0.170253
0.016692 0.840724 0.170848
0.016887 0.842545 0.171443
0.016834 0.879174 0.178674
0.015779 1.056042 0.212641
0.014724 1.232911 0.246608
0.005527 0.968582 0.194120
0.001135 0.841508 0.169563
0.001810 0.840893 0.169549
0.002485 0.840277 0.169535
0.003166 0.839756 0.169496
0.003858 0.839400 0.169412
0.004549 0.839043 0.169328
0.005238 0.838743 0.169258
0.005923 0.838506 0.169205
0.006609 0.838269 0.169151
0.007296 0.838058 0.169082
0.007983 0.837865 0.169003
0.008670 0.837672 0.168923
0.009358 0.837562 0.168908
0.010046 0.837492 0.168924
0.010734 0.837421 0.168940
0.011419 0.837409 0.168981
0.012104 0.837413 0.169028
0.012788 0.837417 0.169075
0.013463 0.837610 0.169186
0.014138 0.837827 0.169305
0.014812 0.838044 0.169424
0.015409 0.838422 0.169531
0.016006 0.838802 0.169637
0.016564 0.839299 0.169781
0.016750 0.840920 0.170277
0.016937 0.842541 0.170774
0.016865 0.878962 0.177891
0.015754 1.055598 0.211686
0.014643 1.232235 0.245481
0.005520 0.968602 0.193495
0.001090 0.841904 0.169097
0.001763 0.841291 0.169077
0.002436 0.840679 0.169057
0.003115 0.840160 0.169014
0.003806 0.839807 0.168933
0.004496 0.839453 0.168852
0.005184 0.839155 0.168785
0.005869 0.838919 0.168733
0.006554 0.838683 0.168682
0.007241 0.838473 0.168615
0.007929 0.838283 0.168538
0.008617 0.838092 0.168460
0.009307 0.837984 0.168445
0.009998 0.837915 0.168460
0.010689 0.837846 0.168474
0.011378 0.837835 0.168510
0.012067 0.837840 0.168552
0.012756 0.837845 0.168594
0.013442 0.838029 0.168701
0.014127 0.838235 0.168817
0.014812 0.838442 0.168932
0.015423 0.838814 0.169042
0.016033 0.839188 0.169152
0.016606 0.839652 0.169288
0.016827 0.840984 0.169673
0.017047 0.842316 0.170057
0.016995 0.878388 0.177030
0.015844 1.054437 0.210547
0.014693 1.230486 0.244064
0.005514 0.968622 0.192871
0.001044 0.842300 0.168632
0.001715 0.841690 0.168605
0.002386 0.841080 0.168578
0.003064 0.840565 0.168533
0.003754 0.840214 0.168455
0.004444 0.839864 0.168376
0.005131 0.839567 0.168312
0.005815 0.839331 0.168262
0.006498 0.839096 0.168212
0.007185 0.838888 0.168148
0.007875 0.838700 0.168072
0.008564 0.838512 0.167997
0.009256 0.838406 0.167982
0.009950 0.838339 0.167995
0.010644 0.838271 0.168008
0.011338 0.838261 0.168040
0.012031 0.838268 0.168077
0.012725 0.838274 0.168114
0.013420 0.838448 0.168217
0.014116 0.838644 0.168329
0.014812 0.838840 0.168441
0.015436 0.839206 0.168554
0.016060 0.839574 0.168667
0.016648 0.840005 0.168796
0.016903 0.841048 0.169068
0.017157 0.842090 0.169341
0.017124 0.877815 0.176168
0.015933 1.053276 0.209408
0.014743 1.228737 0.242647
0.005500 0.968585 0.192225
0.000999 0.842686 0.168157
0.001668 0.842078 0.168123
0.002337 0.841471 0.168089
0.003014 0.840958 0.168040
0.003703 0.840609 0.167965
0.004391 0.840261 0.167889
0.005077 0.839966 0.167826
0.005760 0.839730 0.167778
0.006442 0.839495 0.167731
0.007129 0.839288 0.167668
0.007818 0.839101 0.167595
0.008508 0.838915 0.167522
0.009202 0.838811 0.167506
0.009898 0.838745 0.167518
0.010594 0.838680 0.167530
0.011292 0.838672 0.167557
0.011989 0.838681 0.167589
0.012687 0.838689 0.167621
0.013392 0.838856 0.167721
0.014099 0.839044 0.167830
0.014805 0.839232 0.167938
0.015443 0.839593 0.168054
0.016080 0.839956 0.168171
0.016686 0.840361 0.168293
0.016985 0.841166 0.168475
0.017284 0.841970 0.168657
0.017277 0.877353 0.175347
0.016034 1.052056 0.208256
0.014791 1.226759 0.241165
0.005459 0.968341 0.191500
0.000951 0.843032 0.167650
0.001621 0.842427 0.167607
0.002291 0.841822 0.167565
0.002967 0.841311 0.167510
0.003654 0.840961 0.167434
0.004340 0.840611 0.167358
0.005023 0.840315 0.167296
0.005703 0.840078 0.167250
0.006383 0.839841 0.167204
0.007067 0.839633 0.167143
0.007755 0.839445 0.167072
0.008443 0.839257 0.167000
0.009136 0.839154 0.166985
0.009832 0.839091 0.166996
0.010528 0.839028 0.167006
0.011228 0.839026 0.167030
0.011928 0.839040 0.167058
0.012629 0.839054 0.167085
0.013341 0.839223 0.167183
0.014056 0.839411 0.167289
0.014770 0.839600 0.167395
0.015424 0.839962 0.167514
0.016077 0.840326 0.167632
0.016705 0.840727 0.167755
0.017090 0.841481 0.167926
0.017475 0.842235 0.168096
0.017517 0.877302 0.174673
0.016175 1.050623 0.207059
0.014833 1.223944 0.239446
0.005417 0.968096 0.190776
0.000904 0.843379 0.167142
0.001574 0.842776 0.167091
0.002245 0.842174 0.167040
0.002921 0.841663 0.166979
0.003605 0.841313 0.166904
0.004288 0.840962 0.166828
0.004969 0.840664 0.166767
0.005646 0.840426 0.166722
0.006323 0.840188 0.166677
0.007005 0.839978 0.166618
0.007691 0.839788 0.166548
0.008378 0.839599 0.166479
0.009070 0.839497 0.166463
0.009766 0.839437 0.166473
0.010462 0.839377 0.166483
0.011164 0.839379 0.166503
0.011867 0.839399 0.166526
0.012570 0.839419 0.166549
0.013290 0.839589 0.166644
0.014013 0.839778 0.166748
0.014735 0.839968 0.166853
0.015404 0.840331 0.166973
0.016073 0.840696 0.167093
0.016723 0.841093 0.167217
0.017195 0.841796 0.167376
0.017666 0.842499 0.167535
0.017758 0.877251 0.173998
0.016316 1.049190 0.205862
0.014874 1.221128 0.237726
0.005064 0.966260 0.190083
0.000854 0.843717 0.166627
0.001525 0.843115 0.166567
0.002197 0.842513 0.166507
0.002873 0.842002 0.166442
0.003556 0.841649 0.166367
0.004239 0.841296 0.166292
0.004918 0.840996 0.166232
0.005593 0.840757 0.166189
0.006269 0.840518 0.166146
0.006949 0.840306 0.166090
0.007634 0.840115 0.166024
0.008319 0.839924 0.165957
0.009011 0.839824 0.165942
0.009707 0.839767 0.165952
0.010403 0.839710 0.165961
0.011106 0.839718 0.165978
0.011812 0.839743 0.165997
0.012518 0.839768 0.166017
0.013245 0.839939 0.166109
0.013975 0.840129 0.166211
0.014706 0.840320 0.166312
0.015390 0.840684 0.166434
0.016074 0.841051 0.166555
0.016744 0.841446 0.166680
0.017279 0.842119 0.166833
0.017814 0.842792 0.166985
0.017853 0.873905 0.172752
0.015895 1.027665 0.201139
0.013936 1.181426 0.229526
0.004149 0.961558 0.189448
0.000799 0.844042 0.166096
0.001472 0.843437 0.166029
0.002146 0.842832 0.165962
0.002824 0.842317 0.165892
0.003508 0.841958 0.165819
0.004193 0.841599 0.165746
0.004873 0.841296 0.165688
0.005548 0.841057 0.165649
0.006222 0.840818 0.165610
0.006903 0.840605 0.165558
0.007587 0.840411 0.165496
0.008272 0.840218 0.165433
0.008964 0.840121 0.165421
0.009660 0.840069 0.165431
0.010355 0.840017 0.165442
0.011060 0.840029 0.165457
0.011768 0.840060 0.165474
0.012476 0.840090 0.165491
0.013210 0.840262 0.165580
0.013949 0.840452 0.165678
0.014687 0.840642 0.165776
0.015385 0.841009 0.165897
0.016083 0.841378 0.166019
0.016767 0.841775 0.166144
0.017325 0.842454 0.166299
0.017883 0.843133 0.166455
0.017689 0.864626 0.170475
0.014462 0.969976 0.190068
0.011235 1.075327 0.209661
0.003234 0.956856 0.188813
0.000744 0.844366 0.165565
0.001419 0.843758 0.165490
0.002095 0.843150 0.165416
0.002775 0.842631 0.165343
0.003461 0.842267 0.165271
0.004147 0.841902 0.165200
0.004828 0.841597 0.165145
0.005502 0.841357 0.165109
0.006176 0.841117 0.165074
0.006856 0.840903 0.165025
0.007540 0.840708 0.164967
0.008225 0.840513 0.164910
0.008916 0.840418 0.164899
0.009612 0.840371 0.164911
0.010308 0.840324 0.164923
0.011014 0.840341 0.164937
0.011724 0.840377 0.164951
0.012434 0.840412 0.164965
0.013176 0.840585 0.165050
0.013922 0.840775 0.165145
0.014668 0.840965 0.165239
0.015380 0.841334 0.165361
0.016091 0.841704 0.165482
0.016791 0.842105 0.165607
0.017372 0.842790 0.165766
0.017953 0.843475 0.165924
0.017524 0.855346 0.168198
0.013029 0.912288 0.178997
0.008533 0.969229 0.189797
0.001570 1.085720 0.215360
0.000960 0.947233 0.186435
0.000686 0.844677 0.165027
0.001367 0.844061 0.164943
0.002048 0.843444 0.164860
0.002731 0.842917 0.164781
0.003420 0.842547 0.164710
0.004108 0.842176 0.164639
0.004790 0.841866 0.164586
0.005464 0.841623 0.164552
0.006138 0.841381 0.164517
0.006817 0.841165 0.164472
0.007499 0.840968 0.164418
0.008182 0.840771 0.164363
0.008872 0.840678 0.164354
0.009566 0.840634 0.164367
0.010260 0.840590 0.164379
0.010967 0.840611 0.164390
0.011677 0.840650 0.164401
0.012387 0.840689 0.164412
0.013134 0.840861 0.164493
0.013885 0.841051 0.164584
0.014636 0.841241 0.164675
0.015359 0.841610 0.164795
0.016082 0.841981 0.164915
0.016794 0.842383 0.165039
0.017393 0.843078 0.165200
0.017993 0.843774 0.165361
0.017643 0.849773 0.166555
0.013464 0.877141 0.171915
0.009286 0.904508 0.177274
-0.006892 1.051093 0.206400
-0.002673 0.932687 0.182314
0.000626 0.844975 0.164480
0.001315 0.844344 0.164387
0.002004 0.843713 0.164293
0.002694 0.843175 0.164207
0.003385 0.842797 0.164136
0.004077 0.842420 0.164065
0.004760 0.842104 0.164011
0.005433 0.841856 0.163976
0.006107 0.841609 0.163941
0.006785 0.841390 0.163897
0.007464 0.841192 0.163846
0.008144 0.840994 0.163795
0.008832 0.840901 0.163786
0.009523 0.840859 0.163798
0.010214 0.840817 0.163809
0.010918 0.840839 0.163817
0.011627 0.840880 0.163825
0.012335 0.840920 0.163832
0.013084 0.841092 0.163909
0.013837 0.841281 0.163996
0.014590 0.841471 0.164082
0.015323 0.841838 0.164199
0.016055 0.842207 0.164316
0.016777 0.842609 0.164438
0.017391 0.843320 0.164601
0.018004 0.844030 0.164764
0.018044 0.847906 0.165546
0.015769 0.864535 0.168820
0.013495 0.881165 0.172095
-0.015353 1.016466 0.197440
-0.006306 0.918141 0.178193
0.000565 0.845273 0.163934
0.001263 0.844628 0.163830
0.001961 0.843982 0.163726
0.002657 0.843432 0.163633
0.003351 0.843048 0.163562
0.004045 0.842664 0.163490
0.004729 0.842342 0.163436
0.005403 0.842089 0.163400
0.006077 0.841837 0.163365
0.006752 0.841615 0.163322
0.007429 0.841415 0.163274
0.008106 0.841216 0.163226
0.008791 0.841124 0.163218
0.009479 0.841084 0.163229
0.010167 0.841044 0.163239
0.010870 0.841068 0.163244
0.011577 0.841109 0.163248
0.012284 0.841151 0.163252
0.013034 0.841323 0.163325
0.013789 0.841511 0.163408
0.014545 0.841700 0.163490
0.015287 0.842066 0.163604
0.016029 0.842434 0.163718
0.016760 0.842835 0.163837
0.017388 0.843561 0.164002
0.018016 0.844286 0.164168
0.018445 0.846039 0.164537
0.018074 0.851930 0.165726
0.017703 0.857822 0.166915
-0.014501 0.969934 0.187291
-0.005970 0.898540 0.173571
0.000522 0.845579 0.163396
0.001227 0.844917 0.163282
0.001932 0.844254 0.163167
0.002633 0.843690 0.163068
0.003329 0.843298 0.162996
0.004024 0.842906 0.162924
0.004709 0.842577 0.162869
0.005380 0.842318 0.162832
0.006052 0.842059 0.162796
0.006724 0.841835 0.162755
0.007397 0.841636 0.162710
0.008069 0.841437 0.162665
0.008749 0.841346 0.162656
0.009433 0.841306 0.162665
0.010116 0.841267 0.162674
0.010816 0.841292 0.162676
0.011520 0.841336 0.162676
0.012224 0.841379 0.162676
0.012975 0.841550 0.162744
0.013732 0.841737 0.162821
0.014488 0.841924 0.162898
0.015237 0.842287 0.163008
0.015986 0.842651 0.163118
0.016724 0.843050 0.163234
0.017365 0.843784 0.163401
0.018006 0.844517 0.163568
0.018583 0.845504 0.163786
0.018902 0.847516 0.164210
0.019220 0.849528 0.164634
-0.008474 0.916790 0.176482
-0.003428 0.876131 0.168671
0.000488 0.845891 0.162863
0.001200 0.845209 0.162738
0.001911 0.844527 0.162613
0.002617 0.843947 0.162507
0.003314 0.843547 0.162434
0.004010 0.843147 0.162362
0.004694 0.842810 0.162306
0.005362 0.842544 0.162268
0.006030 0.842278 0.162231
0.006698 0.842052 0.162191
0.007365 0.841854 0.162149
0.008032 0.841657 0.162107
0.008707 0.841566 0.162098
0.009386 0.841527 0.162104
0.010064 0.841487 0.162111
0.010760 0.841514 0.162110
0.011460 0.841560 0.162106
0.012161 0.841606 0.162102
0.012911 0.841775 0.162165
0.013668 0.841960 0.162236
0.014425 0.842146 0.162307
0.015179 0.842504 0.162413
0.015934 0.842863 0.162518
0.016679 0.843259 0.162630
0.017332 0.843996 0.162798
0.017986 0.844734 0.162966
0.018575 0.845711 0.163178
0.018909 0.847653 0.163571
0.019242 0.849596 0.163963
-0.002448 0.863645 0.165673
-0.000887 0.853722 0.163771
0.000455 0.846202 0.162329
0.001173 0.845501 0.162194
0.001891 0.844799 0.162058
0.002602 0.844205 0.161946
0.003299 0.843796 0.161873
0.003996 0.843387 0.161800
0.004678 0.843042 0.161743
0.005344 0.842770 0.161705
0.006009 0.842497 0.161666
0.006672 0.842268 0.161628
0.007334 0.842073 0.161588
0.007996 0.841877 0.161549
0.008665 0.841787 0.161540
0.009338 0.841747 0.161544
0.010012 0.841707 0.161548
0.010703 0.841736 0.161543
0.011401 0.841785 0.161536
0.012098 0.841833 0.161529
0.012848 0.842001 0.161586
0.013605 0.842184 0.161651
0.014362 0.842367 0.161716
0.015122 0.842720 0.161817
0.015882 0.843076 0.161918
0.016633 0.843468 0.162026
0.017299 0.844209 0.162195
0.017965 0.844951 0.162363
0.018568 0.845918 0.162570
0.018916 0.847790 0.162931
0.019263 0.849663 0.163292
-0.001032 0.852016 0.162842
-0.000286 0.848933 0.162262
0.000454 0.846465 0.161795
0.001177 0.845748 0.161650
0.001900 0.845031 0.161506
0.002613 0.844425 0.161387
0.003308 0.844011 0.161314
0.004004 0.843598 0.161240
0.004683 0.843248 0.161182
0.005344 0.842968 0.161142
0.006005 0.842689 0.161101
0.006663 0.842460 0.161063
0.007319 0.842268 0.161026
0.007975 0.842077 0.160989
0.008640 0.841987 0.160978
0.009307 0.841946 0.160978
0.009975 0.841904 0.160979
0.010663 0.841933 0.160970
0.011357 0.841981 0.160958
0.012050 0.842030 0.160947
0.012799 0.842191 0.160997
0.013555 0.842366 0.161055
0.014311 0.842542 0.161113
0.015074 0.842883 0.161208
0.015838 0.843226 0.161304
0.016593 0.843606 0.161407
0.017270 0.844345 0.161576
0.017946 0.845083 0.161745
0.018564 0.846043 0.161952
0.018941 0.847897 0.162306
0.019319 0.849752 0.162661
-0.000874 0.851710 0.162187
-0.000215 0.848949 0.161677
0.000462 0.846716 0.161260
0.001189 0.845984 0.161107
0.001916 0.845251 0.160954
0.002631 0.844634 0.160830
0.003324 0.844218 0.160756
0.004017 0.843801 0.160682
0.004693 0.843446 0.160622
0.005349 0.843160 0.160579
0.006006 0.842873 0.160537
0.006659 0.842644 0.160498
0.007309 0.842458 0.160463
0.007960 0.842272 0.160428
0.008618 0.842182 0.160415
0.009281 0.842139 0.160412
0.009943 0.842095 0.160408
0.010627 0.842122 0.160395
0.011317 0.842170 0.160379
0.012007 0.842218 0.160362
0.012754 0.842371 0.160405
0.013509 0.842538 0.160456
0.014264 0.842705 0.160507
0.015030 0.843032 0.160596
0.015796 0.843360 0.160686
0.016555 0.843726 0.160783
0.017241 0.844459 0.160953
0.017928 0.845191 0.161123
0.018560 0.846146 0.161330
0.018971 0.847996 0.161685
0.019383 0.849846 0.162041
-0.000716 0.851403 0.161532
-0.000144 0.848965 0.161093
0.000470 0.846967 0.160725
0.001201 0.846219 0.160564
0.001933 0.845471 0.160402
0.002649 0.844843 0.160272
0.003340 0.844424 0.160197
0.004030 0.844004 0.160123
0.004703 0.843644 0.160062
0.005355 0.843351 0.160017
0.006007 0.843058 0.159972
0.006655 0.842829 0.159933
0.007299 0.842648 0.159900
0.007944 0.842467 0.159868
0.008597 0.842377 0.159852
0.009254 0.842331 0.159845
0.009911 0.842285 0.159838
0.010591 0.842312 0.159820
0.011278 0.842359 0.159799
0.011964 0.842406 0.159778
0.012710 0.842551 0.159814
0.013463 0.842710 0.159857
0.014216 0.842868 0.159900
0.014985 0.843180 0.159984
0.015754 0.843493 0.160067
0.016516 0.843846 0.160159
0.017213 0.844573 0.160330
0.017910 0.845299 0.160500
0.018557 0.846248 0.160708
0.019002 0.848095 0.161064
0.019447 0.849941 0.161421
-0.000710 0.851475 0.160944
-0.000118 0.849179 0.160524
0.000510 0.847283 0.160170
0.001242 0.846521 0.160004
0.001973 0.845760 0.159837
0.002688 0.845121 0.159705
0.003375 0.844695 0.159630
0.004062 0.844268 0.159555
0.004730 0.843898 0.159492
0.005377 0.843592 0.159444
0.006024 0.843286 0.159396
0.006667 0.843052 0.159357
0.007306 0.842872 0.159325
0.007945 0.842692 0.159293
0.008593 0.842597 0.159276
0.009245 0.842544 0.159265
0.009897 0.842490 0.159254
0.010573 0.842512 0.159234
0.011257 0.842556 0.159211
0.011940 0.842599 0.159188
0.012683 0.842732 0.159219
0.013433 0.842877 0.159257
0.014183 0.843022 0.159295
0.014951 0.843312 0.159375
0.015719 0.843605 0.159456
0.016481 0.843936 0.159545
0.017185 0.844646 0.159717
0.017889 0.845355 0.159889
0.018547 0.846285 0.160098
0.019022 0.848104 0.160454
0.019497 0.849924 0.160810
-0.000716 0.851575 0.160361
-0.000096 0.849408 0.159957
0.000552 0.847604 0.159613
0.001284 0.846829 0.159442
0.002015 0.846054 0.159272
0.002729 0.845404 0.159136
0.003412 0.844971 0.159061
0.004094 0.844537 0.158986
0.004758 0.844157 0.158922
0.005400 0.843837 0.158871
0.006043 0.843517 0.158820
0.006680 0.843278 0.158780
0.007313 0.843099 0.158749
0.007947 0.842919 0.158718
0.008590 0.842819 0.158699
0.009237 0.842758 0.158684
0.009884 0.842696 0.158670
0.010557 0.842714 0.158648
0.011237 0.842754 0.158623
0.011918 0.842793 0.158598
0.012657 0.842914 0.158625
0.013404 0.843044 0.158658
0.014151 0.843174 0.158690
0.014917 0.843444 0.158767
0.015684 0.843714 0.158845
0.016446 0.844025 0.158931
0.017157 0.844716 0.159105
0.017867 0.845407 0.159279
0.018537 0.846317 0.159489
0.019042 0.848107 0.159844
0.019547 0.849898 0.160200
0.019659 0.891744 0.167671
-0.001367 0.853713 0.160166
-0.000720 0.851674 0.159777
-0.000073 0.849635 0.159387
0.000595 0.847922 0.159054
0.001327 0.847135 0.158880
0.002058 0.846348 0.158706
0.002770 0.845687 0.158568
0.003448 0.845246 0.158492
0.004127 0.844806 0.158417
0.004786 0.844416 0.158351
0.005424 0.844082 0.158297
0.006061 0.843749 0.158244
0.006693 0.843504 0.158203
0.007321 0.843325 0.158173
0.007950 0.843147 0.158143
0.008588 0.843042 0.158121
0.009230 0.842972 0.158104
0.009872 0.842903 0.158086
0.010542 0.842916 0.158062
0.011219 0.842952 0.158035
0.011896 0.842989 0.158009
0.012632 0.843096 0.158031
0.013376 0.843213 0.158058
0.014120 0.843329 0.158086
0.014885 0.843577 0.158160
0.015651 0.843826 0.158235
0.016412 0.844115 0.158319
0.017129 0.844788 0.158494
0.017846 0.845460 0.158669
0.018527 0.846349 0.158880
0.019062 0.848108 0.159235
0.019598 0.849867 0.159589
0.019714 0.888724 0.166556
-0.001366 0.853685 0.159539
-0.000702 0.851759 0.159168
-0.000038 0.849834 0.158797
0.000644 0.848204 0.158478
0.001373 0.847416 0.158305
0.002103 0.846627 0.158133
0.002812 0.845963 0.157996
0.003486 0.845518 0.157921
0.004160 0.845072 0.157845
0.004815 0.844674 0.157779
0.005448 0.844330 0.157723
0.006082 0.843985 0.157667
0.006710 0.843736 0.157627
0.007334 0.843558 0.157597
0.007958 0.843379 0.157567
0.008592 0.843271 0.157544
0.009231 0.843195 0.157524
0.009870 0.843119 0.157504
0.010538 0.843130 0.157478
0.011214 0.843165 0.157451
0.011890 0.843200 0.157424
0.012623 0.843297 0.157443
0.013363 0.843402 0.157467
0.014103 0.843507 0.157492
0.014867 0.843735 0.157564
0.015630 0.843964 0.157636
0.016390 0.844233 0.157717
0.017110 0.844883 0.157893
0.017830 0.845533 0.158069
0.018521 0.846391 0.158279
0.019093 0.848085 0.158626
0.019665 0.849778 0.158974
0.019755 0.876624 0.163805
-0.001366 0.853658 0.158911
-0.000684 0.851845 0.158559
-0.000002 0.850033 0.158206
0.000692 0.848487 0.157901
0.001420 0.847697 0.157731
0.002148 0.846907 0.157560
0.002855 0.846240 0.157424
0.003524 0.845789 0.157349
0.004193 0.845338 0.157274
0.004843 0.844932 0.157207
0.005473 0.844577 0.157149
0.006103 0.844222 0.157091
0.006727 0.843968 0.157050
0.007347 0.843790 0.157020
0.007967 0.843612 0.156991
0.008597 0.843499 0.156966
0.009233 0.843417 0.156943
0.009869 0.843336 0.156921
0.010534 0.843344 0.156894
0.011209 0.843377 0.156867
0.011883 0.843410 0.156840
0.012613 0.843498 0.156855
0.013350 0.843592 0.156876
0.014087 0.843686 0.156898
0.014849 0.843894 0.156967
0.015610 0.844103 0.157036
0.016368 0.844352 0.157116
0.017091 0.844979 0.157293
0.017815 0.845607 0.157469
0.018515 0.846433 0.157678
0.019124 0.848061 0.158018
0.019732 0.849689 0.158358
0.019795 0.864523 0.161055
-0.001359 0.853657 0.158281
-0.000663 0.851942 0.157946
0.000033 0.850226 0.157611
0.000737 0.848753 0.157320
0.001464 0.847965 0.157152
0.002191 0.847178 0.156985
0.002895 0.846512 0.156851
0.003560 0.846058 0.156777
0.004225 0.845604 0.156702
0.004871 0.845192 0.156635
0.005498 0.844828 0.156575
0.006125 0.844464 0.156515
0.006745 0.844207 0.156473
0.007362 0.844030 0.156443
0.007978 0.843852 0.156414
0.008605 0.843736 0.156387
0.009237 0.843648 0.156362
0.009870 0.843561 0.156338
0.010534 0.843566 0.156311
0.011207 0.843598 0.156283
0.011879 0.843630 0.156255
0.012606 0.843707 0.156268
0.013339 0.843789 0.156286
0.014073 0.843872 0.156304
0.014831 0.844060 0.156371
0.015590 0.844249 0.156439
0.016345 0.844477 0.156516
0.017071 0.845080 0.156692
0.017796 0.845682 0.156868
0.018504 0.846476 0.157075
0.019142 0.848039 0.157408
0.019779 0.849602 0.157741
0.019859 0.854742 0.158714
-0.001327 0.853756 0.157641
-0.000630 0.852077 0.157320
0.000067 0.850399 0.156999
0.000771 0.848958 0.156720
0.001497 0.848190 0.156562
0.002223 0.847421 0.156403
0.002926 0.846769 0.156276
0.003590 0.846321 0.156203
0.004253 0.845872 0.156130
0.004899 0.845462 0.156062
0.005525 0.845095 0.156001
0.006151 0.844728 0.155940
0.006770 0.844471 0.155896
0.007384 0.844295 0.155865
0.007998 0.844120 0.155834
0.008623 0.844001 0.155806
0.009253 0.843909 0.155780
0.009883 0.843817 0.155753
0.010545 0.843820 0.155726
0.011215 0.843851 0.155699
0.011886 0.843882 0.155673
0.012608 0.843947 0.155684
0.013337 0.844016 0.155700
0.014065 0.844086 0.155716
0.014818 0.844253 0.155780
0.015570 0.844422 0.155846
0.016320 0.844628 0.155921
0.017044 0.845198 0.156093
0.017769 0.845767 0.156265
0.018476 0.846521 0.156467
0.019113 0.848021 0.156793
0.019750 0.849521 0.157118
0.020008 0.853467 0.157872
-0.001296 0.853854 0.157001
-0.000598 0.852213 0.156694
0.000100 0.850572 0.156387
0.000805 0.849164 0.156121
0.001530 0.848414 0.155971
0.002255 0.847664 0.155821
0.002957 0.847026 0.155700
0.003619 0.846583 0.155629
0.004281 0.846140 0.155557
0.004926 0.845732 0.155490
0.005552 0.845362 0.155428
0.006177 0.844992 0.155365
0.006795 0.844734 0.155320
0.007407 0.844560 0.155287
0.008019 0.844387 0.155255
0.008641 0.844265 0.155225
0.009269 0.844169 0.155197
0.009897 0.844073 0.155168
0.010556 0.844075 0.155142
0.011224 0.844104 0.155116
0.011892 0.844133 0.155090
0.012610 0.844187 0.155099
0.013334 0.844243 0.155113
0.014058 0.844300 0.155127
0.014804 0.844447 0.155190
0.015550 0.844595 0.155253
0.016294 0.844779 0.155326
0.017018 0.845315 0.155494
0.017741 0.845852 0.155662
0.018447 0.846567 0.155859
0.019084 0.848003 0.156177
0.019721 0.849440 0.156495
0.020158 0.852192 0.157029
-0.001253 0.853930 0.156361
-0.000556 0.852331 0.156069
0.000141 0.850731 0.155777
0.000844 0.849359 0.155525
0.001567 0.848628 0.155384
0.002291 0.847898 0.155242
0.002991 0.847274 0.155127
0.003651 0.846836 0.155057
0.004311 0.846397 0.154987
0.004955 0.845990 0.154920
0.005580 0.845619 0.154857
0.006205 0.845247 0.154793
0.006821 0.844989 0.154746
0.007431 0.844817 0.154712
0.008040 0.844645 0.154678
0.008660 0.844521 0.154647
0.009286 0.844421 0.154617
0.009911 0.844321 0.154588
0.010567 0.844321 0.154562
0.011232 0.844349 0.154537
0.011896 0.844377 0.154512
0.012609 0.844420 0.154520
0.013327 0.844466 0.154533
0.014045 0.844511 0.154545
0.014785 0.844639 0.154606
0.015525 0.844768 0.154667
0.016263 0.844932 0.154738
0.016985 0.845436 0.154901
0.017707 0.845939 0.155064
0.018412 0.846615 0.155256
0.019049 0.847985 0.155564
0.019686 0.849355 0.155872
0.020243 0.851305 0.156258
-0.001190 0.853963 0.155722
-0.000498 0.852414 0.155447
0.000194 0.850865 0.155171
0.000893 0.849535 0.154933
0.001612 0.848824 0.154801
0.002332 0.848114 0.154669
0.003029 0.847504 0.154560
0.003686 0.847070 0.154491
0.004344 0.846635 0.154423
0.004986 0.846230 0.154356
0.005610 0.845858 0.154291
0.006234 0.845487 0.154226
0.006849 0.845229 0.154178
0.007457 0.845057 0.154142
0.008064 0.844886 0.154107
0.008681 0.844761 0.154075
0.009303 0.844659 0.154044
0.009924 0.844557 0.154014
0.010576 0.844555 0.153989
0.011237 0.844581 0.153966
0.011898 0.844607 0.153942
0.012603 0.844643 0.153951
0.013314 0.844680 0.153964
0.014024 0.844717 0.153977
0.014757 0.844829 0.154035
0.015491 0.844942 0.154094
0.016223 0.845089 0.154161
0.016942 0.845561 0.154318
0.017662 0.846033 0.154475
0.018365 0.846669 0.154660
0.019002 0.847966 0.154954
0.019639 0.849262 0.155248
0.020211 0.851119 0.155615
-0.001127 0.853997 0.155083
-0.000440 0.852498 0.154824
0.000247 0.850999 0.154566
0.000941 0.849710 0.154342
0.001657 0.849020 0.154219
0.002373 0.848330 0.154095
0.003066 0.847734 0.153992
0.003722 0.847304 0.153925
0.004377 0.846873 0.153858
0.005018 0.846470 0.153791
0.005641 0.846098 0.153725
0.006264 0.845726 0.153658
0.006877 0.845469 0.153609
0.007483 0.845298 0.153573
0.008088 0.845127 0.153536
0.008702 0.845001 0.153503
0.009320 0.844896 0.153472
0.009938 0.844792 0.153440
0.010586 0.844788 0.153416
0.011242 0.844812 0.153395
0.011899 0.844837 0.153373
0.012597 0.844865 0.153382
0.013300 0.844894 0.153396
0.014003 0.844923 0.153409
0.014730 0.845019 0.153464
0.015457 0.845116 0.153520
0.016182 0.845246 0.153585
0.016900 0.845686 0.153736
0.017617 0.846127 0.153887
0.018318 0.846723 0.154064
0.018955 0.847946 0.154344
0.019593 0.849170 0.154623
0.020179 0.850933 0.154972
-0.001055 0.854036 0.154459
-0.000373 0.852588 0.154218
0.000308 0.851139 0.153976
0.000997 0.849893 0.153767
0.001708 0.849221 0.153652
0.002419 0.848548 0.153537
0.003109 0.847965 0.153440
0.003762 0.847538 0.153373
0.004415 0.847110 0.153307
0.005054 0.846709 0.153240
0.005676 0.846339 0.153172
0.006299 0.845968 0.153105
0.006911 0.845713 0.153055
0.007515 0.845543 0.153017
0.008120 0.845374 0.152980
0.008731 0.845248 0.152946
0.009346 0.845144 0.152915
0.009961 0.845039 0.152883
0.010606 0.845036 0.152861
0.011259 0.845060 0.152841
0.011912 0.845085 0.152822
0.012604 0.845109 0.152833
0.013300 0.845133 0.152847
0.013997 0.845158 0.152862
0.014718 0.845243 0.152915
0.015439 0.845329 0.152969
0.016160 0.845446 0.153031
0.016876 0.845855 0.153176
0.017592 0.846265 0.153320
0.018293 0.846821 0.153489
0.018933 0.847970 0.153755
0.019573 0.849119 0.154021
0.020170 0.850788 0.154351
-0.000972 0.854081 0.153851
-0.000297 0.852684 0.153627
0.000378 0.851287 0.153402
0.001061 0.850083 0.153208
0.001767 0.849425 0.153101
0.002472 0.848768 0.152994
0.003157 0.848196 0.152902
0.003807 0.847772 0.152836
0.004457 0.847348 0.152769
0.005094 0.846950 0.152702
0.005717 0.846581 0.152634
0.006339 0.846212 0.152565
0.006951 0.845959 0.152514
0.007554 0.845793 0.152476
0.008158 0.845627 0.152438
0.008768 0.845504 0.152404
0.009382 0.845401 0.152374
0.009995 0.845299 0.152343
0.010637 0.845297 0.152323
0.011287 0.845324 0.152306
0.011938 0.845351 0.152289
0.012624 0.845374 0.152302
0.013315 0.845398 0.152318
0.014006 0.845421 0.152334
0.014723 0.845501 0.152387
0.015439 0.845581 0.152440
0.016156 0.845690 0.152501
0.016872 0.846068 0.152638
0.017587 0.846447 0.152776
0.018289 0.846963 0.152936
0.018935 0.848036 0.153188
0.019580 0.849110 0.153439
0.020184 0.850685 0.153753
0.000788 0.903783 0.162851
-0.000889 0.854126 0.153243
-0.000220 0.852780 0.153035
0.000449 0.851435 0.152828
0.001125 0.850272 0.152649
0.001825 0.849630 0.152550
0.002524 0.848988 0.152450
0.003205 0.848427 0.152363
0.003852 0.848006 0.152298
0.004500 0.847585 0.152232
0.005135 0.847190 0.152164
0.005757 0.846823 0.152095
0.006379 0.846455 0.152026
0.006990 0.846205 0.151974
0.007594 0.846043 0.151934
0.008197 0.845880 0.151895
0.008806 0.845759 0.151863
0.009417 0.845659 0.151833
0.010029 0.845558 0.151803
0.010668 0.845559 0.151785
0.011316 0.845588 0.151771
0.011963 0.845617 0.151757
0.012644 0.845640 0.151771
0.013330 0.845662 0.151789
0.014015 0.845685 0.151807
0.014727 0.845759 0.151859
0.015439 0.845833 0.151911
0.016152 0.845933 0.151971
0.016868 0.846281 0.152101
0.017583 0.846629 0.152232
0.018285 0.847106 0.152383
0.018937 0.848103 0.152621
0.019588 0.849100 0.152858
0.020198 0.850582 0.153155
0.000684 0.902100 0.161826
-0.000815 0.854170 0.152630
-0.000153 0.852873 0.152438
0.000508 0.851576 0.152247
0.001178 0.850453 0.152082
0.001872 0.849826 0.151991
0.002566 0.849198 0.151899
0.003242 0.848646 0.151818
0.003887 0.848229 0.151753
0.004532 0.847811 0.151688
0.005167 0.847418 0.151621
0.005789 0.847054 0.151552
0.006411 0.846691 0.151482
0.007023 0.846443 0.151430
0.007626 0.846282 0.151391
0.008229 0.846121 0.151352
0.008837 0.846002 0.151320
0.009446 0.845903 0.151292
0.010056 0.845804 0.151263
0.010693 0.845805 0.151248
0.011337 0.845834 0.151236
0.011982 0.845863 0.151224
0.012658 0.845886 0.151240
0.013337 0.845909 0.151259
0.014017 0.845932 0.151278
0.014726 0.846003 0.151328
0.015434 0.846075 0.151379
0.016143 0.846171 0.151436
0.016859 0.846493 0.151558
0.017575 0.846815 0.151681
0.018279 0.847258 0.151822
0.018937 0.848185 0.152043
0.019595 0.849112 0.152264
0.020213 0.850504 0.152542
0.000592 0.900699 0.160850
-0.000746 0.854213 0.152014
-0.000092 0.852963 0.151838
0.000562 0.851713 0.151663
0.001225 0.850629 0.151511
0.001913 0.850015 0.151427
0.002601 0.849402 0.151344
0.003273 0.848860 0.151267
0.003916 0.848445 0.151204
0.004560 0.848029 0.151140
0.005193 0.847640 0.151074
0.005816 0.847281 0.151006
0.006439 0.846922 0.150937
0.007051 0.846676 0.150886
0.007654 0.846516 0.150847
0.008258 0.846356 0.150809
0.008864 0.846238 0.150778
0.009472 0.846140 0.150751
0.010081 0.846041 0.150724
0.010714 0.846042 0.150711
0.011356 0.846070 0.150701
0.011997 0.846098 0.150691
0.012667 0.846123 0.150708
0.013342 0.846146 0.150729
0.014016 0.846170 0.150749
0.014721 0.846241 0.150797
0.015426 0.846312 0.150845
0.016132 0.846405 0.150900
0.016849 0.846704 0.151013
0.017566 0.847004 0.151126
0.018272 0.847414 0.151257
0.018937 0.848275 0.151461
0.019602 0.849136 0.151664
0.020230 0.850441 0.151922
0.000499 0.899298 0.159874
-0.000678 0.854256 0.151398
-0.000031 0.853053 0.151238
0.000616 0.851851 0.151078
0.001272 0.850805 0.150941
0.001955 0.850205 0.150864
0.002637 0.849605 0.150788
0.003304 0.849074 0.150717
0.003946 0.848661 0.150655
0.004587 0.848248 0.150592
0.005220 0.847862 0.150528
0.005844 0.847507 0.150460
0.006467 0.847152 0.150392
0.007079 0.846910 0.150342
0.007683 0.846750 0.150303
0.008286 0.846591 0.150265
0.008892 0.846474 0.150236
0.009498 0.846376 0.150210
0.010105 0.846279 0.150185
0.010736 0.846279 0.150174
0.011374 0.846306 0.150166
0.012012 0.846333 0.150158
0.012677 0.846359 0.150177
0.013346 0.846383 0.150198
0.014014 0.846408 0.150220
0.014716 0.846479 0.150265
0.015417 0.846549 0.150312
0.016120 0.846639 0.150363
0.016838 0.846916 0.150467
0.017556 0.847192 0.150571
0.018265 0.847571 0.150692
0.018937 0.848365 0.150878
0.019609 0.849160 0.151064
0.020246 0.850377 0.151301
0.000440 0.898310 0.159009
-0.000602 0.854319 0.150794
0.000038 0.853161 0.150648
0.000677 0.852002 0.150501
0.001327 0.850993 0.150375
0.002003 0.850404 0.150304
0.002680 0.849815 0.150233
0.003342 0.849292 0.150166
0.003981 0.848881 0.150105
0.004620 0.848471 0.150044
0.005251 0.848088 0.149981
0.005875 0.847737 0.149914
0.006499 0.847386 0.149848
0.007111 0.847145 0.149798
0.007714 0.846985 0.149762
0.008317 0.846826 0.149725
0.008922 0.846709 0.149698
0.009527 0.846612 0.149676
0.010132 0.846515 0.149653
0.010760 0.846514 0.149645
0.011394 0.846541 0.149640
0.012029 0.846567 0.149635
0.012689 0.846595 0.149655
0.013352 0.846623 0.149678
0.014016 0.846651 0.149701
0.014714 0.846724 0.149746
0.015412 0.846797 0.149791
0.016112 0.846889 0.149840
0.016829 0.847148 0.149936
0.017547 0.847407 0.150032
0.018257 0.847761 0.150143
0.018935 0.848497 0.150313
0.019613 0.849232 0.150483
0.020259 0.850368 0.150701
0.000390 0.897434 0.158174
-0.000525 0.854387 0.150194
0.000108 0.853272 0.150060
0.000741 0.852158 0.149926
0.001384 0.851183 0.149810
0.002054 0.850605 0.149744
0.002725 0.850026 0.149678
0.003382 0.849510 0.149615
0.004018 0.849103 0.149555
0.004654 0.848695 0.149495
0.005284 0.848316 0.149433
0.005908 0.847968 0.149368
0.006531 0.847620 0.149303
0.007143 0.847380 0.149256
0.007746 0.847221 0.149221
0.008349 0.847061 0.149186
0.008952 0.846944 0.149162
0.009556 0.846848 0.149143
0.010159 0.846751 0.149123
0.010784 0.846750 0.149118
0.011416 0.846775 0.149116
0.012047 0.846800 0.149115
0.012702 0.846831 0.149136
0.013360 0.846862 0.149161
0.014018 0.846894 0.149185
0.014712 0.846971 0.149229
0.015407 0.847049 0.149273
0.016103 0.847142 0.149321
0.016821 0.847386 0.149409
0.017538 0.847630 0.149497
0.018249 0.847960 0.149598
0.018933 0.848639 0.149753
0.019617 0.849317 0.149908
0.020271 0.850374 0.150108
0.000340 0.896558 0.157339
-0.000448 0.854455 0.149593
0.000178 0.853384 0.149472
0.000805 0.852313 0.149351
0.001441 0.851373 0.149245
0.002105 0.850805 0.149184
0.002769 0.850238 0.149123
0.003422 0.849729 0.149063
0.004055 0.849324 0.149005
0.004688 0.848919 0.148947
0.005317 0.848543 0.148886
0.005940 0.848198 0.148822
0.006564 0.847854 0.148759
0.007175 0.847616 0.148713
0.007778 0.847456 0.148680
0.008381 0.847296 0.148647
0.008983 0.847179 0.148626
0.009585 0.847083 0.148610
0.010186 0.846987 0.148594
0.010809 0.846985 0.148591
0.011437 0.847009 0.148593
0.012065 0.847033 0.148594
0.012715 0.847067 0.148617
0.013368 0.847102 0.148643
0.014020 0.847137 0.148669
0.014711 0.847218 0.148712
0.015402 0.847300 0.148756
0.016095 0.847395 0.148803
0.016812 0.847624 0.148882
0.017529 0.847853 0.148962
0.018241 0.848159 0.149053
0.018931 0.848781 0.149193
0.019621 0.849403 0.149332
0.020284 0.850380 0.149514
0.000308 0.895872 0.156565
-0.000389 0.854497 0.148989
0.000232 0.853470 0.148879
0.000853 0.852443 0.148769
0.001483 0.851540 0.148673
0.002143 0.850987 0.148617
0.002802 0.850434 0.148561
0.003450 0.849937 0.148505
0.004080 0.849537 0.148449
0.004710 0.849137 0.148393
0.005336 0.848766 0.148335
0.005959 0.848428 0.148275
0.006581 0.848090 0.148214
