# x y z
-0.004449 0.802393 0.204777
-0.003828 0.802099 0.204686
-0.003209 0.801807 0.204599
-0.002590 0.801514 0.204512
-0.001999 0.801258 0.204441
-0.001411 0.801004 0.204370
-0.000823 0.800752 0.204301
-0.000251 0.800528 0.204240
0.000320 0.800304 0.204180
0.000889 0.800086 0.204120
0.001438 0.799900 0.204066
0.001987 0.799713 0.204012
0.002533 0.799536 0.203960
0.003070 0.799384 0.203910
0.003607 0.799233 0.203861
0.004138 0.799096 0.203820
0.004658 0.798984 0.203795
0.005178 0.798873 0.203769
0.005696 0.798796 0.203753
0.006211 0.798760 0.203747
0.006727 0.798724 0.203741
0.007242 0.798728 0.203749
0.007756 0.798764 0.203767
0.008271 0.798799 0.203784
0.008781 0.798882 0.203817
0.009290 0.798988 0.203858
0.009799 0.799094 0.203898
0.010302 0.799226 0.203950
0.010803 0.799366 0.204006
0.011305 0.799505 0.204061
0.011802 0.799689 0.204122
0.012299 0.799878 0.204183
0.012796 0.800067 0.204244
0.013299 0.800274 0.204308
0.013803 0.800480 0.204372
0.014307 0.800690 0.204436
0.014808 0.800932 0.204496
0.015309 0.801175 0.204556
0.015814 0.801416 0.204615
0.016333 0.801651 0.204671
0.016851 0.801886 0.204727
0.017372 0.802110 0.204782
0.017898 0.802305 0.204834
0.018424 0.802501 0.204886
0.018955 0.802672 0.204932
0.019494 0.802808 0.204969
0.020033 0.802944 0.205007
0.020582 0.803052 0.205035
0.021141 0.803134 0.205053
0.021700 0.803215 0.205072
0.022267 0.803282 0.205091
0.022840 0.803339 0.205111
0.023412 0.803397 0.205131
0.023989 0.803444 0.205147
0.024568 0.803488 0.205161
0.025146 0.803533 0.205175
0.025735 0.803581 0.205206
0.026326 0.803630 0.205241
0.026918 0.803679 0.205276
0.027517 0.803743 0.205326
0.028118 0.803808 0.205378
0.028720 0.803874 0.205428
0.029374 0.803986 0.205455
0.030028 0.804099 0.205483
0.030688 0.804221 0.205513
0.031384 0.804410 0.205566
0.032079 0.804598 0.205618
0.032786 0.804800 0.205665
0.033525 0.805042 0.205695
0.034264 0.805285 0.205725
0.035022 0.805560 0.205763
0.035815 0.805896 0.205815
0.036607 0.806232 0.205868
0.037423 0.806634 0.205918
0.038268 0.807118 0.205966
0.039112 0.807602 0.206015
0.039968 0.808177 0.206085
0.040833 0.808826 0.206172
0.041699 0.809474 0.206259
0.042592 0.810251 0.206354
0.043500 0.811094 0.206452
0.044408 0.811937 0.206551
0.045240 0.812869 0.206653
0.046048 0.813830 0.206756
0.046856 0.814791 0.206858
0.047575 0.816069 0.206993
0.048281 0.817395 0.207133
0.048986 0.818722 0.207273
-0.020922 0.821550 0.208554
-0.020016 0.816665 0.207545
-0.019121 0.812260 0.206642
-0.018310 0.811582 0.206565
-0.017498 0.810905 0.206488
-0.016687 0.810243 0.206408
-0.015874 0.809638 0.206317
-0.015060 0.809033 0.206226
-0.014259 0.808443 0.206126
-0.013484 0.807884 0.206008
-0.012708 0.807324 0.205890
-0.011951 0.806800 0.205767
-0.011219 0.806322 0.205636
-0.010488 0.805845 0.205505
-0.009775 0.805397 0.205363
-0.009078 0.804976 0.205213
-0.008381 0.804555 0.205062
-0.007703 0.804188 0.204927
-0.007034 0.803850 0.204802
-0.006366 0.803513 0.204676
-0.005722 0.803201 0.204561
-0.005088 0.802898 0.204450
-0.004453 0.802596 0.204339
-0.003833 0.802299 0.204247
-0.003214 0.802004 0.204158
-0.002596 0.801709 0.204069
-0.002007 0.801451 0.203997
-0.001419 0.801194 0.203926
-0.000832 0.800939 0.203855
-0.000260 0.800714 0.203794
0.000312 0.800489 0.203734
0.000880 0.800271 0.203674
0.001430 0.800085 0.203620
0.001979 0.799900 0.203567
0.002526 0.799723 0.203514
0.003064 0.799571 0.203465
0.003603 0.799420 0.203415
0.004135 0.799283 0.203374
0.004656 0.799173 0.203348
0.005178 0.799064 0.203322
0.005697 0.798990 0.203306
0.006216 0.798956 0.203300
0.006734 0.798923 0.203295
0.007251 0.798931 0.203302
0.007766 0.798969 0.203319
0.008282 0.799008 0.203336
0.008794 0.799094 0.203369
0.009303 0.799203 0.203409
0.009813 0.799312 0.203449
0.010316 0.799446 0.203501
0.010817 0.799588 0.203556
0.011319 0.799729 0.203611
0.011816 0.799911 0.203671
0.012313 0.800099 0.203732
0.012809 0.800286 0.203793
0.013313 0.800488 0.203857
0.013817 0.800691 0.203920
0.014321 0.800896 0.203983
0.014821 0.801131 0.204042
0.015321 0.801365 0.204101
0.015825 0.801599 0.204159
0.016343 0.801830 0.204215
0.016862 0.802060 0.204270
0.017382 0.802279 0.204325
0.017907 0.802472 0.204375
0.018433 0.802665 0.204426
0.018963 0.802833 0.204471
0.019501 0.802967 0.204507
0.020038 0.803100 0.204543
0.020586 0.803207 0.204570
0.021144 0.803287 0.204587
0.021701 0.803368 0.204603
0.022268 0.803434 0.204621
0.022839 0.803490 0.204640
0.023411 0.803546 0.204659
0.023988 0.803593 0.204675
0.024567 0.803636 0.204690
0.025146 0.803679 0.204704
0.025736 0.803728 0.204736
0.026330 0.803778 0.204773
0.026923 0.803828 0.204809
0.027527 0.803893 0.204860
0.028131 0.803959 0.204913
0.028737 0.804026 0.204965
0.029397 0.804140 0.204994
0.030057 0.804253 0.205022
0.030722 0.804377 0.205054
0.031424 0.804567 0.205104
0.032126 0.804757 0.205155
0.032838 0.804959 0.205200
0.033584 0.805202 0.205226
0.034329 0.805445 0.205252
0.035093 0.805722 0.205285
0.035890 0.806064 0.205331
0.036688 0.806406 0.205376
0.037508 0.806813 0.205420
0.038356 0.807301 0.205462
0.039204 0.807789 0.205504
0.040064 0.808366 0.205567
0.040934 0.809015 0.205648
0.041805 0.809664 0.205728
0.042702 0.810435 0.205816
0.043613 0.811268 0.205907
0.044525 0.812102 0.205998
0.045362 0.813025 0.206090
0.046176 0.813976 0.206184
0.046990 0.814927 0.206277
0.047714 0.816211 0.206406
0.048424 0.817546 0.206540
0.049135 0.818881 0.206675
-0.021755 0.863320 0.216764
-0.019117 0.812612 0.206073
-0.018316 0.811920 0.206007
-0.017515 0.811228 0.205941
-0.016712 0.810556 0.205873
-0.015901 0.809955 0.205797
-0.015090 0.809354 0.205721
-0.014289 0.808767 0.205637
-0.013511 0.808209 0.205535
-0.012732 0.807651 0.205432
-0.011972 0.807125 0.205321
-0.011236 0.806639 0.205197
-0.010501 0.806154 0.205074
-0.009785 0.805696 0.204937
-0.009085 0.805262 0.204788
-0.008386 0.804828 0.204639
-0.007707 0.804450 0.204503
-0.007039 0.804104 0.204374
-0.006370 0.803759 0.204245
-0.005727 0.803438 0.204128
-0.005093 0.803127 0.204014
-0.004458 0.802815 0.203900
-0.003839 0.802515 0.203806
-0.003222 0.802217 0.203716
-0.002605 0.801919 0.203625
-0.002017 0.801659 0.203553
-0.001429 0.801401 0.203481
-0.000843 0.801144 0.203410
-0.000270 0.800921 0.203350
0.000302 0.800698 0.203289
0.000872 0.800481 0.203230
0.001422 0.800298 0.203177
0.001973 0.800115 0.203123
0.002521 0.799940 0.203071
0.003062 0.799790 0.203022
0.003602 0.799640 0.202973
0.004136 0.799505 0.202932
0.004659 0.799398 0.202906
0.005182 0.799291 0.202879
0.005704 0.799218 0.202862
0.006223 0.799184 0.202856
0.006743 0.799150 0.202849
0.007260 0.799160 0.202856
0.007777 0.799202 0.202873
0.008294 0.799244 0.202889
0.008806 0.799332 0.202922
0.009317 0.799443 0.202961
0.009827 0.799554 0.203000
0.010331 0.799689 0.203051
0.010833 0.799831 0.203106
0.011335 0.799973 0.203160
0.011832 0.800153 0.203219
0.012328 0.800338 0.203279
0.012825 0.800522 0.203339
0.013330 0.800720 0.203402
0.013834 0.800917 0.203466
0.014338 0.801118 0.203528
0.014839 0.801347 0.203587
0.015341 0.801577 0.203645
0.015845 0.801806 0.203702
0.016364 0.802032 0.203758
0.016884 0.802258 0.203813
0.017405 0.802472 0.203866
0.017930 0.802662 0.203916
0.018455 0.802851 0.203965
0.018985 0.803017 0.204009
0.019522 0.803148 0.204044
0.020059 0.803279 0.204079
0.020605 0.803384 0.204104
0.021161 0.803463 0.204119
0.021718 0.803542 0.204134
0.022283 0.803606 0.204151
0.022854 0.803660 0.204170
0.023425 0.803714 0.204188
0.024002 0.803759 0.204204
0.024582 0.803801 0.204218
0.025161 0.803842 0.204233
0.025755 0.803892 0.204265
0.026351 0.803944 0.204300
0.026948 0.803995 0.204336
0.027558 0.804061 0.204387
0.028169 0.804128 0.204440
0.028783 0.804197 0.204491
0.029450 0.804312 0.204519
0.030118 0.804427 0.204547
0.030791 0.804553 0.204577
0.031500 0.804745 0.204625
0.032209 0.804936 0.204672
0.032929 0.805141 0.204714
0.033681 0.805385 0.204735
0.034434 0.805630 0.204757
0.035204 0.805910 0.204785
0.036006 0.806258 0.204825
0.036809 0.806607 0.204865
0.037633 0.807018 0.204903
0.038485 0.807506 0.204939
0.039336 0.807994 0.204976
0.040201 0.808566 0.205033
0.041077 0.809206 0.205108
0.041953 0.809846 0.205183
0.042855 0.810603 0.205266
0.043770 0.811420 0.205352
0.044686 0.812237 0.205438
0.045528 0.813147 0.205526
0.046348 0.814086 0.205614
0.047168 0.815026 0.205702
0.047897 0.816324 0.205832
0.048612 0.817678 0.205968
0.049328 0.819032 0.206105
0.057632 1.003049 0.252657
-0.023495 0.909974 0.225982
-0.019112 0.812965 0.205505
-0.018322 0.812259 0.205450
-0.017531 0.811552 0.205394
-0.016737 0.810870 0.205338
-0.015928 0.810272 0.205278
-0.015119 0.809675 0.205217
-0.014319 0.809091 0.205148
-0.013538 0.808535 0.205061
-0.012756 0.807978 0.204974
-0.011992 0.807449 0.204875
-0.011253 0.806957 0.204759
-0.010514 0.806464 0.204643
-0.009794 0.805995 0.204510
-0.009093 0.805548 0.204363
-0.008391 0.805100 0.204216
-0.007711 0.804712 0.204079
-0.007043 0.804358 0.203947
-0.006375 0.804004 0.203814
-0.005732 0.803675 0.203694
-0.005098 0.803355 0.203577
-0.004463 0.803034 0.203460
-0.003845 0.802730 0.203365
-0.003230 0.802430 0.203273
-0.002614 0.802129 0.203182
-0.002026 0.801867 0.203109
-0.001440 0.801607 0.203037
-0.000854 0.801349 0.202965
-0.000281 0.801128 0.202905
0.000293 0.800906 0.202845
0.000863 0.800691 0.202786
0.001415 0.800510 0.202733
0.001967 0.800330 0.202680
0.002517 0.800158 0.202628
0.003059 0.800009 0.202579
0.003601 0.799860 0.202530
0.004137 0.799727 0.202489
0.004662 0.799622 0.202463
0.005187 0.799518 0.202436
0.005710 0.799446 0.202419
0.006230 0.799412 0.202411
0.006751 0.799378 0.202403
0.007270 0.799389 0.202410
0.007788 0.799434 0.202426
0.008306 0.799479 0.202442
0.008819 0.799570 0.202474
0.009330 0.799683 0.202512
0.009841 0.799795 0.202551
0.010345 0.799931 0.202601
0.010848 0.800074 0.202655
0.011350 0.800217 0.202709
0.011847 0.800395 0.202768
0.012344 0.800576 0.202827
0.012841 0.800758 0.202886
0.013346 0.800951 0.202948
0.013851 0.801144 0.203011
0.014356 0.801339 0.203073
0.014858 0.801564 0.203131
0.015360 0.801788 0.203189
0.015866 0.802012 0.203246
0.016386 0.802234 0.203300
0.016906 0.802455 0.203355
0.017427 0.802666 0.203408
0.017953 0.802852 0.203456
0.018478 0.803038 0.203505
0.019007 0.803201 0.203547
0.019543 0.803329 0.203581
0.020079 0.803458 0.203615
0.020624 0.803560 0.203639
0.021179 0.803638 0.203652
0.021734 0.803715 0.203665
0.022298 0.803777 0.203681
0.022868 0.803830 0.203699
0.023438 0.803882 0.203717
0.024016 0.803926 0.203732
0.024597 0.803966 0.203747
0.025177 0.804006 0.203761
0.025773 0.804056 0.203793
0.026373 0.804109 0.203828
0.026973 0.804162 0.203863
0.027590 0.804229 0.203914
0.028208 0.804297 0.203966
0.028828 0.804368 0.204018
0.029503 0.804484 0.204045
0.030178 0.804601 0.204071
0.030859 0.804729 0.204101
0.031576 0.804922 0.204145
0.032292 0.805116 0.204189
0.033019 0.805322 0.204227
0.033779 0.805569 0.204244
0.034539 0.805815 0.204262
0.035315 0.806098 0.204285
0.036122 0.806453 0.204319
0.036930 0.806807 0.204353
0.037759 0.807222 0.204386
0.038613 0.807711 0.204417
0.039468 0.808199 0.204447
0.040338 0.808767 0.204500
0.041220 0.809397 0.204569
0.042102 0.810028 0.204638
0.043008 0.810771 0.204715
0.043927 0.811571 0.204797
0.044846 0.812372 0.204879
0.045694 0.813269 0.204962
0.046520 0.814197 0.205045
0.047345 0.815124 0.205128
0.048080 0.816438 0.205259
0.048801 0.817811 0.205397
0.049521 0.819184 0.205535
0.057781 1.003387 0.252067
-0.019112 0.813333 0.204952
-0.018332 0.812608 0.204905
-0.017552 0.811882 0.204858
-0.016766 0.811186 0.204811
-0.015960 0.810592 0.204764
-0.015153 0.809999 0.204718
-0.014354 0.809418 0.204663
-0.013569 0.808864 0.204590
-0.012785 0.808310 0.204517
-0.012018 0.807780 0.204428
-0.011274 0.807280 0.204319
-0.010531 0.806780 0.204211
-0.009808 0.806301 0.204083
-0.009104 0.805840 0.203938
-0.008399 0.805379 0.203793
-0.007718 0.804981 0.203655
-0.007051 0.804618 0.203520
-0.006383 0.804256 0.203384
-0.005739 0.803918 0.203261
-0.005105 0.803590 0.203142
-0.004470 0.803261 0.203023
-0.003853 0.802954 0.202926
-0.003239 0.802650 0.202834
-0.002625 0.802346 0.202741
-0.002037 0.802082 0.202667
-0.001452 0.801821 0.202594
-0.000866 0.801562 0.202522
-0.000292 0.801342 0.202462
0.000282 0.801121 0.202402
0.000853 0.800907 0.202343
0.001407 0.800730 0.202290
0.001960 0.800552 0.202238
0.002511 0.800382 0.202186
0.003055 0.800235 0.202138
0.003599 0.800088 0.202089
0.004137 0.799957 0.202049
0.004664 0.799855 0.202022
0.005191 0.799753 0.201996
0.005716 0.799683 0.201978
0.006238 0.799649 0.201970
0.006759 0.799615 0.201961
0.007279 0.799628 0.201967
0.007798 0.799675 0.201983
0.008317 0.799723 0.201999
0.008831 0.799815 0.202029
0.009343 0.799929 0.202067
0.009854 0.800043 0.202105
0.010359 0.800179 0.202155
0.010862 0.800322 0.202208
0.011364 0.800466 0.202261
0.011862 0.800640 0.202319
0.012359 0.800819 0.202378
0.012856 0.800997 0.202436
0.013361 0.801185 0.202498
0.013867 0.801373 0.202560
0.014373 0.801563 0.202622
0.014876 0.801783 0.202679
0.015380 0.802003 0.202737
0.015886 0.802222 0.202793
0.016407 0.802438 0.202847
0.016928 0.802655 0.202901
0.017450 0.802862 0.202953
0.017976 0.803045 0.203000
0.018501 0.803228 0.203047
0.019030 0.803388 0.203088
0.019565 0.803515 0.203121
0.020100 0.803642 0.203153
0.020644 0.803743 0.203175
0.021198 0.803820 0.203187
0.021752 0.803898 0.203199
0.022315 0.803959 0.203214
0.022885 0.804011 0.203231
0.023455 0.804062 0.203248
0.024034 0.804106 0.203263
0.024616 0.804146 0.203278
0.025198 0.804186 0.203293
0.025797 0.804238 0.203324
0.026401 0.804293 0.203359
0.027004 0.804347 0.203393
0.027627 0.804416 0.203444
0.028252 0.804487 0.203495
0.028879 0.804559 0.203545
0.029562 0.804677 0.203571
0.030244 0.804796 0.203597
0.030932 0.804925 0.203625
0.031655 0.805121 0.203666
0.032379 0.805317 0.203706
0.033112 0.805526 0.203740
0.033879 0.805775 0.203753
0.034645 0.806023 0.203766
0.035427 0.806310 0.203784
0.036240 0.806672 0.203812
0.037053 0.807033 0.203840
0.037886 0.807452 0.203866
0.038745 0.807942 0.203891
0.039604 0.808432 0.203916
0.040479 0.808994 0.203962
0.041367 0.809616 0.204025
0.042256 0.810238 0.204089
0.043167 0.810966 0.204161
0.044091 0.811749 0.204238
0.045014 0.812532 0.204316
0.045867 0.813417 0.204394
0.046698 0.814334 0.204473
0.047529 0.815251 0.204551
0.048270 0.816583 0.204685
0.048996 0.817980 0.204827
0.049722 0.819376 0.204969
0.057934 1.003743 0.251479
0.066370 1.193565 0.299371
-0.019127 0.813757 0.204455
-0.018358 0.812996 0.204407
-0.017589 0.812235 0.204359
-0.016812 0.811512 0.204313
-0.016007 0.810922 0.204275
-0.015202 0.810332 0.204237
-0.014404 0.809756 0.204190
-0.013617 0.809208 0.204126
-0.012831 0.808661 0.204062
-0.012060 0.808131 0.203981
-0.011310 0.807626 0.203877
-0.010561 0.807120 0.203774
-0.009834 0.806631 0.203651
-0.009127 0.806157 0.203510
-0.008420 0.805683 0.203369
-0.007737 0.805273 0.203231
-0.007068 0.804902 0.203094
-0.006399 0.804530 0.202958
-0.005755 0.804186 0.202834
-0.005119 0.803851 0.202715
-0.004483 0.803516 0.202595
-0.003866 0.803205 0.202497
-0.003253 0.802898 0.202403
-0.002639 0.802591 0.202310
-0.002052 0.802326 0.202235
-0.001467 0.802063 0.202161
-0.000882 0.801802 0.202087
-0.000307 0.801582 0.202026
0.000268 0.801361 0.201965
0.000840 0.801148 0.201906
0.001395 0.800973 0.201853
0.001950 0.800798 0.201801
0.002502 0.800631 0.201750
0.003048 0.800487 0.201703
0.003595 0.800342 0.201655
0.004135 0.800214 0.201616
0.004664 0.800117 0.201590
0.005193 0.800019 0.201564
0.005720 0.799952 0.201547
0.006243 0.799920 0.201540
0.006767 0.799888 0.201532
0.007287 0.799901 0.201537
0.007806 0.799947 0.201552
0.008324 0.799993 0.201566
0.008838 0.800085 0.201596
0.009350 0.800198 0.201633
0.009863 0.800312 0.201671
0.010368 0.800447 0.201720
0.010871 0.800588 0.201773
0.011374 0.800730 0.201826
0.011872 0.800900 0.201883
0.012370 0.801074 0.201942
0.012867 0.801248 0.202000
0.013374 0.801430 0.202062
0.013881 0.801612 0.202125
0.014388 0.801797 0.202186
0.014893 0.802011 0.202243
0.015398 0.802226 0.202300
0.015907 0.802440 0.202356
0.016429 0.802653 0.202409
0.016951 0.802866 0.202462
0.017474 0.803070 0.202512
0.017999 0.803250 0.202556
0.018525 0.803430 0.202601
0.019054 0.803589 0.202640
0.019589 0.803716 0.202670
0.020123 0.803844 0.202701
0.020668 0.803948 0.202721
0.021222 0.804030 0.202731
0.021775 0.804111 0.202740
0.022340 0.804177 0.202755
0.022912 0.804232 0.202772
0.023483 0.804288 0.202789
0.024065 0.804336 0.202804
0.024651 0.804381 0.202819
0.025237 0.804427 0.202834
0.025841 0.804483 0.202865
0.026449 0.804543 0.202899
0.027056 0.804602 0.202933
0.027687 0.804676 0.202981
0.028320 0.804750 0.203031
0.028955 0.804826 0.203079
0.029642 0.804947 0.203103
0.030328 0.805067 0.203126
0.031021 0.805198 0.203151
0.031749 0.805398 0.203187
0.032477 0.805598 0.203223
0.033216 0.805811 0.203252
0.033987 0.806064 0.203259
0.034758 0.806318 0.203267
0.035545 0.806612 0.203279
0.036364 0.806983 0.203299
0.037183 0.807353 0.203320
0.038023 0.807779 0.203339
0.038887 0.808271 0.203356
0.039751 0.808764 0.203373
0.040634 0.809323 0.203412
0.041532 0.809936 0.203468
0.042430 0.810548 0.203524
0.043348 0.811260 0.203591
0.044278 0.812023 0.203664
0.045208 0.812786 0.203737
0.046066 0.813661 0.203813
0.046901 0.814570 0.203891
0.047737 0.815480 0.203969
0.048484 0.816847 0.204112
0.049217 0.818285 0.204266
0.049950 0.819722 0.204420
0.058105 1.004164 0.250893
0.066482 1.194062 0.298748
-0.018383 0.813384 0.203908
-0.017625 0.812588 0.203860
-0.016857 0.811838 0.203815
-0.016055 0.811252 0.203785
-0.015252 0.810666 0.203755
-0.014454 0.810095 0.203717
-0.013665 0.809553 0.203662
-0.012877 0.809011 0.203607
-0.012102 0.808482 0.203533
-0.011347 0.807971 0.203435
-0.010591 0.807460 0.203337
-0.009860 0.806962 0.203219
-0.009150 0.806474 0.203082
-0.008441 0.805986 0.202945
-0.007756 0.805566 0.202807
-0.007086 0.805185 0.202669
-0.006416 0.804804 0.202531
-0.005770 0.804453 0.202407
-0.005134 0.804112 0.202287
-0.004497 0.803771 0.202167
-0.003880 0.803456 0.202068
-0.003267 0.803146 0.201973
-0.002654 0.802836 0.201878
-0.002067 0.802569 0.201802
-0.001482 0.802305 0.201727
-0.000897 0.802043 0.201653
-0.000322 0.801822 0.201591
0.000254 0.801602 0.201529
0.000827 0.801389 0.201468
0.001383 0.801216 0.201416
0.001939 0.801044 0.201364
0.002493 0.800880 0.201314
0.003042 0.800738 0.201267
0.003590 0.800596 0.201221
0.004132 0.800472 0.201183
0.004664 0.800379 0.201158
0.005195 0.800285 0.201133
0.005724 0.800221 0.201116
0.006249 0.800191 0.201110
0.006774 0.800161 0.201103
0.007295 0.800174 0.201108
0.007813 0.800218 0.201121
0.008331 0.800263 0.201134
0.008845 0.800354 0.201163
0.009358 0.800467 0.201200
0.009871 0.800580 0.201236
0.010377 0.800714 0.201285
0.010881 0.800855 0.201338
0.011384 0.800994 0.201390
0.011883 0.801160 0.201448
0.012381 0.801329 0.201506
0.012879 0.801499 0.201564
0.013387 0.801675 0.201626
0.013895 0.801851 0.201689
0.014403 0.802030 0.201750
0.014910 0.802240 0.201806
0.015417 0.802449 0.201863
0.015927 0.802659 0.201918
0.016450 0.802868 0.201970
0.016973 0.803077 0.202022
0.017497 0.803277 0.202071
0.018023 0.803455 0.202113
0.018549 0.803632 0.202154
0.019078 0.803789 0.202191
0.019613 0.803918 0.202220
0.020147 0.804046 0.202248
0.020691 0.804153 0.202266
0.021245 0.804239 0.202274
0.021799 0.804324 0.202282
0.022365 0.804394 0.202296
0.022938 0.804454 0.202313
0.023512 0.804514 0.202330
0.024097 0.804567 0.202346
0.024686 0.804617 0.202361
0.025276 0.804667 0.202376
0.025884 0.804729 0.202406
0.026497 0.804793 0.202439
0.027109 0.804857 0.202472
0.027747 0.804935 0.202519
0.028388 0.805013 0.202566
0.029030 0.805093 0.202613
0.029722 0.805216 0.202634
0.030413 0.805338 0.202655
0.031110 0.805472 0.202678
0.031843 0.805675 0.202708
0.032576 0.805879 0.202739
0.033319 0.806096 0.202763
0.034095 0.806354 0.202765
0.034870 0.806613 0.202768
0.035663 0.806913 0.202774
0.036488 0.807293 0.202787
0.037313 0.807674 0.202800
0.038159 0.808106 0.202811
0.039029 0.808601 0.202821
0.039899 0.809096 0.202830
0.040790 0.809651 0.202861
0.041697 0.810255 0.202910
0.042604 0.810859 0.202959
0.043530 0.811554 0.203021
0.044465 0.812297 0.203090
0.045401 0.813039 0.203158
0.046264 0.813904 0.203233
0.047105 0.814807 0.203309
0.047945 0.815709 0.203386
0.048698 0.817111 0.203540
0.049438 0.818590 0.203705
0.050177 0.820068 0.203870
0.058276 1.004585 0.250308
0.066595 1.194560 0.298125
0.074365 1.370299 0.342361
-0.017675 0.812940 0.203372
-0.016914 0.812160 0.203326
-0.016112 0.811579 0.203303
-0.015310 0.810998 0.203279
-0.014512 0.810433 0.203248
-0.013720 0.809900 0.203201
-0.012928 0.809368 0.203154
-0.012150 0.808843 0.203088
-0.011389 0.808329 0.202995
-0.010628 0.807814 0.202902
-0.009893 0.807307 0.202788
-0.009180 0.806806 0.202654
-0.008467 0.806305 0.202521
-0.007781 0.805874 0.202383
-0.007110 0.805483 0.202243
-0.006439 0.805093 0.202103
-0.005792 0.804734 0.201976
-0.005154 0.804386 0.201855
-0.004516 0.804038 0.201734
-0.003899 0.803720 0.201634
-0.003286 0.803406 0.201538
-0.002673 0.803093 0.201442
-0.002086 0.802825 0.201364
-0.001501 0.802559 0.201288
-0.000917 0.802295 0.201212
-0.000340 0.802074 0.201150
0.000237 0.801853 0.201087
0.000811 0.801640 0.201026
0.001369 0.801470 0.200975
0.001926 0.801299 0.200924
0.002482 0.801137 0.200874
0.003032 0.800998 0.200829
0.003583 0.800859 0.200784
0.004127 0.800737 0.200746
0.004661 0.800648 0.200722
0.005194 0.800558 0.200699
0.005725 0.800497 0.200683
0.006252 0.800469 0.200677
0.006779 0.800441 0.200671
0.007300 0.800454 0.200676
0.007818 0.800498 0.200687
0.008336 0.800542 0.200699
0.008850 0.800632 0.200727
0.009364 0.800743 0.200763
0.009877 0.800855 0.200799
0.010383 0.800987 0.200847
0.010887 0.801125 0.200899
0.011392 0.801262 0.200951
0.011891 0.801424 0.201008
0.012390 0.801589 0.201067
0.012889 0.801753 0.201125
0.013398 0.801924 0.201187
0.013907 0.802095 0.201249
0.014416 0.802269 0.201310
0.014925 0.802475 0.201366
0.015434 0.802680 0.201422
0.015947 0.802886 0.201477
0.016471 0.803092 0.201528
0.016996 0.803298 0.201579
0.017521 0.803495 0.201627
0.018047 0.803670 0.201666
0.018573 0.803845 0.201706
0.019103 0.804001 0.201740
0.019637 0.804130 0.201768
0.020171 0.804259 0.201796
0.020715 0.804368 0.201813
0.021269 0.804458 0.201819
0.021823 0.804547 0.201826
0.022389 0.804621 0.201840
0.022964 0.804684 0.201857
0.023539 0.804748 0.201875
0.024127 0.804805 0.201891
0.024720 0.804860 0.201907
0.025313 0.804914 0.201923
0.025926 0.804980 0.201952
0.026543 0.805048 0.201983
0.027160 0.805116 0.202015
0.027806 0.805197 0.202059
0.028454 0.805279 0.202105
0.029104 0.805363 0.202149
0.029799 0.805487 0.202168
0.030495 0.805611 0.202186
0.031196 0.805747 0.202206
0.031933 0.805955 0.202231
0.032669 0.806164 0.202257
0.033417 0.806385 0.202275
0.034196 0.806650 0.202273
0.034976 0.806914 0.202270
0.035773 0.807222 0.202271
0.036602 0.807613 0.202277
0.037432 0.808004 0.202283
0.038283 0.808443 0.202287
0.039158 0.808941 0.202289
0.040034 0.809438 0.202291
0.040931 0.809989 0.202315
0.041846 0.810583 0.202357
0.042761 0.811177 0.202399
0.043693 0.811854 0.202456
0.044633 0.812576 0.202521
0.045574 0.813297 0.202585
0.046442 0.814152 0.202659
0.047287 0.815048 0.202735
0.048132 0.815944 0.202811
0.048891 0.817386 0.202978
0.049636 0.818910 0.203158
0.050382 0.820435 0.203338
0.058424 1.004996 0.249733
0.066684 1.195015 0.297506
-0.017748 0.813288 0.202904
-0.016992 0.812473 0.202853
-0.016189 0.811900 0.202832
-0.015385 0.811326 0.202812
-0.014584 0.810771 0.202785
-0.013788 0.810254 0.202746
-0.012991 0.809737 0.202706
-0.012208 0.809221 0.202646
-0.011442 0.808707 0.202559
-0.010677 0.808194 0.202471
-0.009937 0.807679 0.202360
-0.009220 0.807165 0.202228
-0.008502 0.806650 0.202096
-0.007814 0.806208 0.201957
-0.007143 0.805808 0.201814
-0.006472 0.805408 0.201670
-0.005825 0.805040 0.201541
-0.005186 0.804683 0.201416
-0.004547 0.804326 0.201292
-0.003929 0.804004 0.201190
-0.003315 0.803688 0.201092
-0.002701 0.803373 0.200995
-0.002114 0.803102 0.200916
-0.001528 0.802835 0.200839
-0.000943 0.802569 0.200763
-0.000364 0.802347 0.200700
0.000214 0.802125 0.200638
0.000790 0.801912 0.200577
0.001349 0.801742 0.200527
0.001908 0.801572 0.200477
0.002466 0.801410 0.200428
0.003018 0.801273 0.200385
0.003570 0.801135 0.200341
0.004117 0.801017 0.200305
0.004652 0.800930 0.200282
0.005188 0.800844 0.200259
0.005720 0.800786 0.200245
0.006248 0.800760 0.200240
0.006777 0.800734 0.200234
0.007300 0.800748 0.200239
0.007819 0.800793 0.200250
0.008338 0.800838 0.200261
0.008852 0.800924 0.200288
0.009365 0.801032 0.200323
0.009878 0.801139 0.200357
0.010385 0.801267 0.200404
0.010890 0.801402 0.200455
0.011395 0.801537 0.200506
0.011895 0.801694 0.200563
0.012395 0.801854 0.200621
0.012895 0.802015 0.200679
0.013405 0.802181 0.200740
0.013915 0.802347 0.200802
0.014426 0.802517 0.200862
0.014938 0.802721 0.200918
0.015451 0.802925 0.200974
0.015966 0.803129 0.201028
0.016492 0.803332 0.201079
0.017019 0.803536 0.201129
0.017545 0.803730 0.201176
0.018072 0.803903 0.201214
0.018599 0.804076 0.201252
0.019129 0.804231 0.201286
0.019663 0.804361 0.201314
0.020197 0.804491 0.201342
0.020740 0.804602 0.201360
0.021293 0.804695 0.201367
0.021846 0.804787 0.201375
0.022413 0.804863 0.201389
0.022988 0.804929 0.201408
0.023564 0.804995 0.201427
0.024155 0.805055 0.201445
0.024751 0.805115 0.201461
0.025348 0.805174 0.201478
0.025965 0.805242 0.201505
0.026586 0.805312 0.201535
0.027207 0.805383 0.201565
0.027861 0.805466 0.201606
0.028517 0.805551 0.201649
0.029175 0.805637 0.201690
0.029874 0.805762 0.201705
0.030572 0.805888 0.201720
0.031277 0.806027 0.201736
0.032016 0.806241 0.201756
0.032755 0.806455 0.201777
0.033504 0.806684 0.201790
0.034286 0.806955 0.201782
0.035068 0.807226 0.201775
0.035867 0.807544 0.201770
0.036699 0.807949 0.201770
0.037531 0.808354 0.201770
0.038384 0.808801 0.201768
0.039264 0.809300 0.201764
0.040143 0.809799 0.201759
0.041046 0.810344 0.201777
0.041967 0.810926 0.201812
0.042888 0.811508 0.201848
0.043824 0.812166 0.201900
0.044767 0.812864 0.201962
0.045710 0.813562 0.202023
0.046582 0.814407 0.202097
0.047431 0.815299 0.202174
0.048280 0.816190 0.202252
0.049044 0.817679 0.202436
0.049796 0.819259 0.202636
0.050547 0.820840 0.202837
0.058531 1.005390 0.249176
0.066731 1.195396 0.296892
-0.017069 0.812787 0.202379
-0.016265 0.812221 0.202362
-0.015461 0.811654 0.202345
-0.014657 0.811109 0.202323
-0.013855 0.810607 0.202291
-0.013053 0.810105 0.202259
-0.012265 0.809599 0.202205
-0.011496 0.809086 0.202122
-0.010726 0.808573 0.202040
-0.009982 0.808052 0.201932
-0.009260 0.807524 0.201802
-0.008538 0.806996 0.201672
-0.007848 0.806543 0.201531
-0.007177 0.806133 0.201384
-0.006506 0.805723 0.201238
-0.005858 0.805345 0.201105
-0.005217 0.804980 0.200978
-0.004577 0.804614 0.200850
-0.003958 0.804288 0.200747
-0.003343 0.803970 0.200647
-0.002729 0.803653 0.200547
-0.002141 0.803380 0.200468
-0.001555 0.803110 0.200390
-0.000969 0.802843 0.200313
-0.000389 0.802620 0.200251
0.000192 0.802397 0.200188
0.000769 0.802183 0.200127
0.001329 0.802013 0.200079
0.001890 0.801844 0.200030
0.002449 0.801683 0.199982
0.003004 0.801548 0.199940
0.003558 0.801412 0.199898
0.004106 0.801296 0.199863
0.004643 0.801213 0.199841
0.005181 0.801130 0.199820
0.005715 0.801075 0.199806
0.006245 0.801051 0.199802
0.006775 0.801027 0.199798
0.007299 0.801042 0.199802
0.007819 0.801087 0.199813
0.008339 0.801133 0.199823
0.008854 0.801217 0.199849
0.009367 0.801320 0.199882
0.009880 0.801423 0.199915
0.010387 0.801548 0.199961
0.010892 0.801680 0.200011
0.011398 0.801811 0.200062
0.011899 0.801964 0.200118
0.012400 0.802120 0.200176
0.012901 0.802276 0.200233
0.013412 0.802438 0.200294
0.013924 0.802600 0.200354
0.014436 0.802766 0.200415
0.014952 0.802968 0.200470
0.015467 0.803169 0.200525
0.015985 0.803371 0.200580
0.016513 0.803573 0.200630
0.017042 0.803774 0.200680
0.017570 0.803966 0.200726
0.018097 0.804137 0.200762
0.018625 0.804307 0.200799
0.019155 0.804462 0.200832
0.019688 0.804592 0.200861
0.020222 0.804723 0.200889
0.020765 0.804836 0.200907
0.021317 0.804931 0.200915
0.021869 0.805027 0.200923
0.022436 0.805105 0.200939
0.023013 0.805173 0.200959
0.023589 0.805241 0.200980
0.024183 0.805306 0.200998
0.024783 0.805370 0.201016
0.025383 0.805433 0.201033
0.026004 0.805504 0.201059
0.026630 0.805577 0.201087
0.027255 0.805649 0.201114
0.027917 0.805735 0.201153
0.028581 0.805822 0.201193
0.029246 0.805910 0.201231
0.029948 0.806038 0.201243
0.030650 0.806166 0.201254
0.031357 0.806306 0.201266
0.032099 0.806527 0.201281
0.032840 0.806747 0.201296
0.033592 0.806982 0.201305
0.034376 0.807261 0.201292
0.035160 0.807539 0.201280
0.035961 0.807866 0.201269
0.036795 0.808285 0.201263
0.037630 0.808703 0.201257
0.038486 0.809159 0.201249
0.039369 0.809659 0.201239
0.040253 0.810159 0.201228
0.041160 0.810698 0.201239
0.042087 0.811268 0.201267
0.043015 0.811839 0.201296
0.043954 0.812478 0.201344
0.044900 0.813152 0.201402
0.045847 0.813827 0.201461
0.046722 0.814663 0.201535
0.047575 0.815549 0.201613
0.048428 0.816436 0.201692
0.049198 0.817972 0.201894
0.049955 0.819609 0.202115
0.050712 0.821245 0.202335
0.058638 1.005784 0.248620
-0.017151 0.813118 0.201919
-0.016344 0.812549 0.201903
-0.015538 0.811980 0.201886
-0.014731 0.811437 0.201867
-0.013925 0.810948 0.201840
-0.013119 0.810460 0.201813
-0.012326 0.809961 0.201764
-0.011551 0.809448 0.201684
-0.010777 0.808935 0.201605
-0.010028 0.808409 0.201499
-0.009302 0.807872 0.201370
-0.008575 0.807335 0.201241
-0.007883 0.806873 0.201098
-0.007211 0.806453 0.200947
-0.006539 0.806034 0.200795
-0.005889 0.805649 0.200659
-0.005246 0.805276 0.200529
-0.004603 0.804903 0.200398
-0.003983 0.804574 0.200293
-0.003367 0.804254 0.200192
-0.002752 0.803933 0.200091
-0.002163 0.803659 0.200011
-0.001576 0.803387 0.199933
-0.000989 0.803118 0.199855
-0.000407 0.802894 0.199793
0.000174 0.802670 0.199731
0.000753 0.802455 0.199671
0.001315 0.802286 0.199623
0.001877 0.802118 0.199575
0.002437 0.801959 0.199529
0.002993 0.801826 0.199488
0.003549 0.801694 0.199447
0.004098 0.801582 0.199414
0.004637 0.801503 0.199393
0.005176 0.801424 0.199373
0.005712 0.801373 0.199360
0.006243 0.801351 0.199357
0.006774 0.801330 0.199353
0.007300 0.801347 0.199358
0.007821 0.801394 0.199368
0.008343 0.801440 0.199378
0.008858 0.801521 0.199403
0.009371 0.801619 0.199435
0.009883 0.801718 0.199466
0.010391 0.801839 0.199512
0.010897 0.801966 0.199561
0.011404 0.802093 0.199610
0.011906 0.802242 0.199666
0.012408 0.802393 0.199723
0.012910 0.802544 0.199780
0.013423 0.802701 0.199840
0.013936 0.802859 0.199901
0.014450 0.803020 0.199960
0.014968 0.803219 0.200015
0.015486 0.803418 0.200071
0.016007 0.803617 0.200125
0.016536 0.803815 0.200174
0.017065 0.804013 0.200224
0.017594 0.804202 0.200270
0.018122 0.804370 0.200306
0.018649 0.804538 0.200342
0.019179 0.804690 0.200375
0.019712 0.804822 0.200405
0.020246 0.804953 0.200435
0.020788 0.805067 0.200454
0.021340 0.805165 0.200464
0.021892 0.805264 0.200474
0.022460 0.805344 0.200492
0.023037 0.805415 0.200514
0.023615 0.805485 0.200537
0.024211 0.805553 0.200556
0.024814 0.805621 0.200574
0.025417 0.805688 0.200593
0.026042 0.805763 0.200617
0.026670 0.805839 0.200643
0.027299 0.805914 0.200669
0.027967 0.806003 0.200704
0.028637 0.806093 0.200740
0.029309 0.806184 0.200776
0.030015 0.806314 0.200784
0.030720 0.806445 0.200792
0.031431 0.806589 0.200800
0.032176 0.806816 0.200808
0.032920 0.807044 0.200817
0.033675 0.807285 0.200819
0.034462 0.807570 0.200799
0.035249 0.807856 0.200779
0.036053 0.808190 0.200761
0.036890 0.808620 0.200746
0.037727 0.809049 0.200730
0.038585 0.809509 0.200712
0.039469 0.810008 0.200692
0.040353 0.810506 0.200671
0.041262 0.811037 0.200673
0.042192 0.811593 0.200694
0.043122 0.812149 0.200714
0.044061 0.812765 0.200756
0.045006 0.813412 0.200810
0.045950 0.814059 0.200863
0.046827 0.814890 0.200940
0.047683 0.815778 0.201023
0.048539 0.816666 0.201107
0.049314 0.818260 0.201331
0.050076 0.819963 0.201576
0.050838 0.821665 0.201822
0.058716 1.006176 0.248045
-0.018314 0.882407 0.217882
-0.017237 0.813466 0.201473
-0.016427 0.812885 0.201455
-0.015617 0.812303 0.201437
-0.014807 0.811755 0.201417
-0.013997 0.811277 0.201393
-0.013187 0.810799 0.201369
-0.012390 0.810306 0.201322
-0.011610 0.809793 0.201245
-0.010829 0.809281 0.201167
-0.010076 0.808752 0.201062
-0.009345 0.808210 0.200933
-0.008615 0.807667 0.200803
-0.007920 0.807198 0.200657
-0.007246 0.806770 0.200500
-0.006571 0.806342 0.200344
-0.005918 0.805950 0.200204
-0.005272 0.805571 0.200070
-0.004625 0.805193 0.199935
-0.004004 0.804861 0.199828
-0.003387 0.804538 0.199726
-0.002770 0.804215 0.199624
-0.002180 0.803938 0.199545
-0.001591 0.803664 0.199466
-0.001003 0.803392 0.199389
-0.000420 0.803168 0.199327
0.000163 0.802943 0.199266
0.000742 0.802728 0.199206
0.001306 0.802561 0.199160
0.001869 0.802393 0.199114
0.002430 0.802237 0.199069
0.002986 0.802109 0.199029
0.003543 0.801981 0.198989
0.004093 0.801873 0.198956
0.004633 0.801800 0.198937
0.005173 0.801727 0.198918
0.005710 0.801680 0.198906
0.006242 0.801662 0.198904
0.006775 0.801644 0.198902
0.007302 0.801664 0.198906
0.007825 0.801711 0.198916
0.008347 0.801758 0.198926
0.008864 0.801837 0.198950
0.009377 0.801931 0.198980
0.009890 0.802024 0.199011
0.010398 0.802140 0.199055
0.010905 0.802262 0.199103
0.011412 0.802383 0.199152
0.011916 0.802526 0.199207
0.012419 0.802672 0.199264
0.012923 0.802818 0.199320
0.013437 0.802971 0.199380
0.013952 0.803123 0.199440
0.014468 0.803280 0.199500
0.014988 0.803476 0.199554
0.015508 0.803671 0.199609
0.016030 0.803866 0.199663
0.016559 0.804060 0.199713
0.017089 0.804254 0.199763
0.017618 0.804439 0.199809
0.018145 0.804603 0.199844
0.018673 0.804767 0.199880
0.019202 0.804918 0.199915
0.019735 0.805049 0.199947
0.020268 0.805180 0.199979
0.020810 0.805296 0.200001
0.021363 0.805397 0.200014
0.021915 0.805497 0.200027
0.022483 0.805580 0.200047
0.023062 0.805652 0.200073
0.023641 0.805724 0.200098
0.024239 0.805796 0.200119
0.024845 0.805867 0.200138
0.025452 0.805939 0.200156
0.026078 0.806018 0.200180
0.026708 0.806098 0.200204
0.027339 0.806178 0.200229
0.028011 0.806270 0.200260
0.028688 0.806363 0.200292
0.029365 0.806457 0.200323
0.030074 0.806592 0.200328
0.030782 0.806727 0.200333
0.031497 0.806876 0.200337
0.032246 0.807110 0.200337
0.032995 0.807345 0.200338
0.033754 0.807593 0.200332
0.034545 0.807884 0.200303
0.035336 0.808176 0.200274
0.036144 0.808517 0.200245
0.036983 0.808953 0.200217
0.037822 0.809390 0.200188
0.038680 0.809852 0.200158
0.039561 0.810346 0.200124
0.040443 0.810841 0.200090
0.041351 0.811360 0.200081
0.042281 0.811898 0.200091
0.043210 0.812437 0.200100
0.044145 0.813027 0.200135
0.045083 0.813643 0.200183
0.046021 0.814258 0.200231
0.046898 0.815088 0.200312
0.047756 0.815984 0.200404
0.048614 0.816880 0.200495
0.049392 0.818542 0.200746
0.050158 0.820322 0.201021
0.050924 0.822101 0.201296
-0.018618 0.928138 0.228335
-0.017323 0.813814 0.201026
-0.016510 0.813220 0.201007
-0.015697 0.812627 0.200987
-0.014883 0.812074 0.200967
-0.014069 0.811606 0.200946
-0.013256 0.811139 0.200925
-0.012454 0.810652 0.200881
-0.011668 0.810139 0.200805
-0.010882 0.809626 0.200729
-0.010123 0.809095 0.200625
-0.009389 0.808547 0.200495
-0.008655 0.808000 0.200366
-0.007957 0.807522 0.200215
-0.007280 0.807086 0.200054
-0.006604 0.806649 0.199892
-0.005947 0.806251 0.199748
-0.005297 0.805867 0.199610
-0.004648 0.805483 0.199473
-0.004024 0.805148 0.199364
-0.003406 0.804822 0.199261
-0.002788 0.804497 0.199157
-0.002196 0.804217 0.199078
-0.001606 0.803941 0.199000
-0.001017 0.803667 0.198923
-0.000433 0.803442 0.198862
0.000151 0.803216 0.198801
0.000732 0.803000 0.198742
0.001296 0.802835 0.198697
0.001860 0.802669 0.198652
0.002422 0.802514 0.198608
0.002980 0.802391 0.198570
0.003537 0.802267 0.198531
0.004088 0.802164 0.198499
0.004629 0.802097 0.198481
0.005170 0.802029 0.198463
0.005708 0.801987 0.198452
0.006242 0.801973 0.198451
0.006775 0.801958 0.198450
0.007304 0.801980 0.198455
0.007828 0.802028 0.198464
0.008352 0.802077 0.198474
0.008869 0.802153 0.198497
0.009383 0.802242 0.198526
0.009896 0.802331 0.198556
0.010405 0.802441 0.198599
0.010913 0.802557 0.198646
0.011420 0.802673 0.198693
0.011926 0.802811 0.198748
0.012430 0.802951 0.198805
0.012935 0.803092 0.198861
0.013452 0.803240 0.198920
0.013968 0.803388 0.198980
0.014486 0.803540 0.199039
0.015007 0.803732 0.199093
0.015529 0.803924 0.199148
0.016053 0.804115 0.199201
0.016583 0.804305 0.199251
0.017113 0.804495 0.199301
0.017642 0.804676 0.199347
0.018169 0.804836 0.199383
0.018696 0.804997 0.199419
0.019225 0.805145 0.199454
0.019757 0.805276 0.199489
0.020290 0.805408 0.199524
0.020832 0.805524 0.199549
0.021385 0.805628 0.199564
0.021938 0.805731 0.199580
0.022507 0.805816 0.199603
0.023087 0.805890 0.199631
0.023666 0.805964 0.199660
0.024267 0.806039 0.199681
0.024877 0.806114 0.199701
0.025486 0.806190 0.199720
0.026114 0.806272 0.199742
0.026746 0.806357 0.199766
0.027378 0.806441 0.199789
0.028056 0.806536 0.199816
0.028738 0.806633 0.199844
0.029420 0.806731 0.199871
0.030133 0.806870 0.199872
0.030845 0.807009 0.199873
0.031562 0.807163 0.199873
0.032316 0.807404 0.199866
0.033069 0.807646 0.199859
0.033833 0.807901 0.199845
0.034628 0.808198 0.199807
0.035424 0.808496 0.199769
0.036235 0.808843 0.199729
0.037076 0.809287 0.199688
0.037917 0.809731 0.199646
0.038775 0.810195 0.199603
0.039654 0.810685 0.199556
0.040533 0.811175 0.199509
0.041440 0.811682 0.199488
0.042369 0.812204 0.199488
0.043298 0.812726 0.199487
0.044228 0.813289 0.199514
0.045160 0.813873 0.199556
0.046091 0.814457 0.199598
0.046968 0.815286 0.199684
0.047829 0.816190 0.199784
0.048689 0.817095 0.199884
0.049471 0.818824 0.200161
0.050241 0.820681 0.200466
0.051011 0.822537 0.200770
-0.018765 0.944866 0.231832
-0.017406 0.814208 0.200614
-0.016591 0.813594 0.200590
-0.015775 0.812981 0.200565
-0.014959 0.812417 0.200542
-0.014142 0.811957 0.200520
-0.013324 0.811496 0.200499
-0.012518 0.811014 0.200454
-0.011726 0.810501 0.200376
-0.010935 0.809988 0.200299
-0.010172 0.809454 0.200193
-0.009433 0.808900 0.200061
-0.008695 0.808346 0.199929
-0.007994 0.807861 0.199774
-0.007315 0.807416 0.199606
-0.006635 0.806972 0.199437
-0.005975 0.806567 0.199289
-0.005322 0.806175 0.199146
-0.004668 0.805784 0.199004
-0.004043 0.805447 0.198894
-0.003423 0.805120 0.198789
-0.002802 0.804793 0.198685
-0.002209 0.804512 0.198606
-0.001618 0.804234 0.198528
-0.001027 0.803958 0.198451
-0.000442 0.803732 0.198390
0.000142 0.803506 0.198329
0.000724 0.803289 0.198271
0.001288 0.803124 0.198227
0.001852 0.802960 0.198183
0.002415 0.802807 0.198141
0.002972 0.802686 0.198103
0.003529 0.802566 0.198065
0.004081 0.802466 0.198034
0.004623 0.802402 0.198017
0.005165 0.802339 0.198000
0.005704 0.802299 0.197990
0.006239 0.802287 0.197990
0.006775 0.802274 0.197989
0.007305 0.802297 0.197995
0.007831 0.802346 0.198005
0.008357 0.802394 0.198015
0.008876 0.802468 0.198038
0.009391 0.802554 0.198067
0.009906 0.802640 0.198096
0.010416 0.802745 0.198139
0.010924 0.802856 0.198185
0.011432 0.802967 0.198232
0.011939 0.803101 0.198287
0.012446 0.803238 0.198343
0.012953 0.803374 0.198400
0.013472 0.803520 0.198459
0.013991 0.803665 0.198519
0.014510 0.803814 0.198578
0.015034 0.804002 0.198632
0.015558 0.804190 0.198686
0.016083 0.804377 0.198740
0.016614 0.804563 0.198790
0.017144 0.804749 0.198840
0.017674 0.804926 0.198886
0.018200 0.805083 0.198921
0.018727 0.805240 0.198957
0.019256 0.805386 0.198992
0.019788 0.805517 0.199029
0.020321 0.805648 0.199065
0.020864 0.805766 0.199092
0.021417 0.805871 0.199109
0.021970 0.805976 0.199126
0.022540 0.806063 0.199152
0.023120 0.806139 0.199182
0.023701 0.806214 0.199212
0.024305 0.806293 0.199235
0.024917 0.806374 0.199255
0.025529 0.806454 0.199275
0.026159 0.806544 0.199297
0.026792 0.806635 0.199320
0.027426 0.806727 0.199343
0.028109 0.806831 0.199368
0.028795 0.806935 0.199394
0.029483 0.807042 0.199418
0.030198 0.807193 0.199418
0.030914 0.807345 0.199417
0.031635 0.807510 0.199415
0.032391 0.807763 0.199401
0.033148 0.808015 0.199388
0.033914 0.808280 0.199367
0.034713 0.808586 0.199321
0.035511 0.808891 0.199275
0.036324 0.809246 0.199227
0.037163 0.809695 0.199174
0.038003 0.810145 0.199121
0.038859 0.810608 0.199064
0.039733 0.811089 0.199004
0.040607 0.811570 0.198943
0.041509 0.812065 0.198910
0.042434 0.812570 0.198899
0.043358 0.813076 0.198888
0.044282 0.813623 0.198908
0.045206 0.814192 0.198945
0.046130 0.814761 0.198982
0.047004 0.815609 0.199078
0.047863 0.816544 0.199191
0.048722 0.817479 0.199305
0.049506 0.819318 0.199621
0.050280 0.821296 0.199968
-0.020305 1.112671 0.271415
-0.018824 0.945482 0.231465
-0.017488 0.814627 0.200222
-0.016671 0.813990 0.200190
-0.015853 0.813353 0.200159
-0.015035 0.812774 0.200130
-0.014214 0.812319 0.200106
-0.013393 0.811864 0.200083
-0.012583 0.811385 0.200035
-0.011785 0.810872 0.199954
-0.010988 0.810360 0.199874
-0.010220 0.809821 0.199764
-0.009478 0.809260 0.199628
-0.008736 0.808699 0.199492
-0.008032 0.808207 0.199332
-0.007349 0.807755 0.199157
-0.006666 0.807303 0.198982
-0.006002 0.806890 0.198827
-0.005345 0.806490 0.198680
-0.004688 0.806090 0.198533
-0.004060 0.805752 0.198421
-0.003438 0.805424 0.198315
-0.002815 0.805097 0.198209
-0.002221 0.804815 0.198130
-0.001628 0.804535 0.198053
-0.001035 0.804259 0.197976
-0.000450 0.804031 0.197916
0.000135 0.803804 0.197855
0.000717 0.803587 0.197797
0.001281 0.803423 0.197754
0.001845 0.803259 0.197711
0.002407 0.803107 0.197669
0.002964 0.802989 0.197632
0.003521 0.802871 0.197594
0.004073 0.802774 0.197564
0.004616 0.802713 0.197548
0.005159 0.802652 0.197532
0.005699 0.802615 0.197523
0.006236 0.802603 0.197524
0.006773 0.802592 0.197524
0.007305 0.802615 0.197530
0.007833 0.802663 0.197541
0.008362 0.802711 0.197552
0.008882 0.802783 0.197575
0.009399 0.802867 0.197605
0.009917 0.802950 0.197634
0.010428 0.803051 0.197677
0.010937 0.803157 0.197723
0.011446 0.803262 0.197769
0.011955 0.803393 0.197824
0.012464 0.803527 0.197881
0.012974 0.803662 0.197938
0.013495 0.803805 0.197998
0.014017 0.803948 0.198058
0.014539 0.804095 0.198117
0.015064 0.804279 0.198171
0.015590 0.804463 0.198225
0.016117 0.804646 0.198278
0.016648 0.804828 0.198329
0.017179 0.805010 0.198379
0.017709 0.805184 0.198424
0.018236 0.805337 0.198459
0.018763 0.805491 0.198494
0.019292 0.805635 0.198530
0.019824 0.805766 0.198567
0.020356 0.805897 0.198605
0.020900 0.806015 0.198633
0.021453 0.806122 0.198651
0.022007 0.806228 0.198670
0.022578 0.806316 0.198696
0.023159 0.806393 0.198728
0.023741 0.806470 0.198759
0.024347 0.806554 0.198783
0.024961 0.806640 0.198804
0.025576 0.806726 0.198825
0.026208 0.806824 0.198848
0.026844 0.806925 0.198871
0.027480 0.807025 0.198893
0.028166 0.807140 0.198918
0.028857 0.807256 0.198942
0.029549 0.807374 0.198965
0.030268 0.807542 0.198964
0.030986 0.807710 0.198963
0.031711 0.807891 0.198959
0.032470 0.808156 0.198940
0.033229 0.808422 0.198921
0.033998 0.808699 0.198894
0.034798 0.809013 0.198841
0.035598 0.809327 0.198789
0.036411 0.809690 0.198732
0.037248 0.810144 0.198668
0.038085 0.810599 0.198604
0.038936 0.811060 0.198536
0.039804 0.811530 0.198460
0.040672 0.811999 0.198385
0.041568 0.812480 0.198339
0.042486 0.812969 0.198317
0.043403 0.813459 0.198295
0.044319 0.813997 0.198310
0.045235 0.814559 0.198343
0.046150 0.815122 0.198376
0.047020 0.816002 0.198483
0.047875 0.816980 0.198614
0.048731 0.817958 0.198744
0.049518 0.819930 0.199105
0.050295 0.822054 0.199502
-0.020336 1.113532 0.271077
-0.018884 0.946099 0.231097
-0.017570 0.815046 0.199830
-0.016750 0.814385 0.199791
-0.015931 0.813724 0.199752
-0.015110 0.813132 0.199718
-0.014286 0.812682 0.199692
-0.013462 0.812232 0.199666
-0.012647 0.811756 0.199616
-0.011844 0.811244 0.199532
-0.011041 0.810731 0.199449
-0.010269 0.810189 0.199335
-0.009523 0.809621 0.199196
-0.008777 0.809053 0.199056
-0.008069 0.808553 0.198890
-0.007383 0.808094 0.198708
-0.006697 0.807634 0.198526
-0.006029 0.807213 0.198366
-0.005368 0.806805 0.198214
-0.004707 0.806397 0.198061
-0.004077 0.806056 0.197947
-0.003453 0.805729 0.197841
-0.002828 0.805401 0.197734
-0.002232 0.805118 0.197655
-0.001637 0.804837 0.197578
-0.001043 0.804559 0.197501
-0.000458 0.804331 0.197441
0.000128 0.804102 0.197380
0.000710 0.803884 0.197323
0.001274 0.803721 0.197281
0.001838 0.803558 0.197239
0.002400 0.803408 0.197198
0.002956 0.803292 0.197161
0.003513 0.803176 0.197124
0.004065 0.803082 0.197094
0.004609 0.803024 0.197079
0.005153 0.802966 0.197064
0.005695 0.802930 0.197056
0.006233 0.802920 0.197058
0.006771 0.802909 0.197059
0.007305 0.802932 0.197066
0.007836 0.802980 0.197077
0.008366 0.803028 0.197088
0.008889 0.803098 0.197112
0.009408 0.803179 0.197142
0.009928 0.803260 0.197173
0.010440 0.803357 0.197215
0.010950 0.803457 0.197260
0.011460 0.803558 0.197306
0.011971 0.803686 0.197362
0.012483 0.803817 0.197419
0.012994 0.803949 0.197476
0.013518 0.804090 0.197537
0.014043 0.804232 0.197597
0.014567 0.804377 0.197657
0.015095 0.804556 0.197710
0.015622 0.804736 0.197764
0.016150 0.804915 0.197817
0.016682 0.805094 0.197867
0.017214 0.805272 0.197917
0.017744 0.805442 0.197963
0.018271 0.805592 0.197997
0.018798 0.805741 0.198031
0.019327 0.805884 0.198067
0.019860 0.806014 0.198106
0.020392 0.806145 0.198145
0.020936 0.806264 0.198174
0.021490 0.806372 0.198193
0.022044 0.806480 0.198213
0.022615 0.806569 0.198241
0.023198 0.806648 0.198274
0.023781 0.806726 0.198307
0.024389 0.806814 0.198332
0.025006 0.806906 0.198354
0.025622 0.806999 0.198375
0.026257 0.807105 0.198398
0.026895 0.807214 0.198421
0.027533 0.807323 0.198444
0.028224 0.807450 0.198467
0.028919 0.807577 0.198490
0.029615 0.807706 0.198512
0.030337 0.807890 0.198510
0.031059 0.808075 0.198508
0.031787 0.808272 0.198503
0.032548 0.808550 0.198479
0.033309 0.808829 0.198455
0.034081 0.809118 0.198422
0.034883 0.809441 0.198362
0.035686 0.809764 0.198302
0.036499 0.810134 0.198237
0.037332 0.810593 0.198163
0.038166 0.811053 0.198088
0.039012 0.811512 0.198007
0.039875 0.811970 0.197917
0.040737 0.812428 0.197827
0.041626 0.812895 0.197769
0.042537 0.813369 0.197736
0.043448 0.813842 0.197703
0.044357 0.814370 0.197712
0.045264 0.814927 0.197741
0.046171 0.815483 0.197770
0.047036 0.816394 0.197889
0.047888 0.817416 0.198036
0.048740 0.818437 0.198183
0.049529 0.820542 0.198589
-0.021730 1.281716 0.310599
-0.020323 1.114190 0.270646
-0.018915 0.946664 0.230694
-0.017636 0.815531 0.199446
-0.016815 0.814829 0.199397
-0.015995 0.814127 0.199347
-0.015173 0.813505 0.199304
-0.014347 0.813051 0.199275
-0.013521 0.812597 0.199246
-0.012704 0.812117 0.199192
-0.011898 0.811604 0.199105
-0.011091 0.811091 0.199018
-0.010316 0.810546 0.198901
-0.009568 0.809974 0.198759
-0.008821 0.809402 0.198616
-0.008111 0.808898 0.198445
-0.007422 0.808433 0.198257
-0.006734 0.807968 0.198069
-0.006064 0.807543 0.197904
-0.005400 0.807131 0.197746
-0.004736 0.806719 0.197589
-0.004103 0.806378 0.197472
-0.003476 0.806050 0.197363
-0.002849 0.805722 0.197254
-0.002251 0.805438 0.197175
-0.001654 0.805156 0.197097
-0.001058 0.804876 0.197020
-0.000471 0.804646 0.196959
0.000115 0.804416 0.196898
0.000699 0.804196 0.196840
0.001262 0.804033 0.196799
0.001826 0.803870 0.196758
0.002387 0.803720 0.196718
0.002943 0.803607 0.196681
0.003500 0.803493 0.196644
0.004052 0.803400 0.196616
0.004597 0.803344 0.196602
0.005143 0.803288 0.196588
0.005686 0.803254 0.196582
0.006225 0.803245 0.196585
0.006765 0.803236 0.196587
0.007301 0.803259 0.196596
0.007834 0.803306 0.196608
0.008368 0.803353 0.196621
0.008893 0.803423 0.196646
0.009415 0.803502 0.196677
0.009936 0.803582 0.196708
0.010451 0.803677 0.196751
0.010963 0.803776 0.196796
0.011475 0.803875 0.196842
0.011989 0.804002 0.196899
0.012502 0.804132 0.196956
0.013016 0.804262 0.197014
0.013542 0.804401 0.197075
0.014069 0.804540 0.197135
0.014595 0.804682 0.197195
0.015124 0.804857 0.197248
