# x y z
-0.238444 0.817399 -0.082120
-0.270953 0.919119 -0.090782
-0.293458 0.990338 -0.096791
-0.293781 0.993926 -0.096920
-0.294104 0.997513 -0.097050
-0.293715 0.999829 -0.097032
-0.292322 1.000352 -0.096808
-0.290930 1.000876 -0.096584
-0.289502 1.001159 -0.096421
-0.288042 1.001218 -0.096316
-0.286582 1.001277 -0.096211
-0.285137 1.001331 -0.096119
-0.283700 1.001381 -0.096035
-0.282262 1.001432 -0.095951
-0.280511 1.000356 -0.095830
-0.278642 0.998859 -0.095696
-0.276772 0.997362 -0.095561
-0.258963 0.938927 -0.084897
-0.237935 0.869000 -0.072107
-0.216908 0.799073 -0.059317
-0.207795 0.762987 -0.063168
-0.199492 0.729203 -0.068151
-0.191497 0.696760 -0.072932
-0.190770 0.696027 -0.072927
-0.190044 0.695293 -0.072922
-0.189324 0.694579 -0.072914
-0.188642 0.693976 -0.072891
-0.187960 0.693374 -0.072867
-0.187281 0.692789 -0.072843
-0.186609 0.692259 -0.072815
-0.185936 0.691729 -0.072787
-0.185285 0.691252 -0.072757
-0.184673 0.690874 -0.072724
-0.184061 0.690497 -0.072690
-0.183469 0.690176 -0.072660
-0.182902 0.689925 -0.072633
-0.182334 0.689673 -0.072606
-0.181785 0.689485 -0.072593
-0.181249 0.689347 -0.072589
-0.180714 0.689210 -0.072585
-0.180201 0.689130 -0.072589
-0.179701 0.689080 -0.072597
-0.179200 0.689029 -0.072605
-0.178727 0.689040 -0.072628
-0.178263 0.689069 -0.072654
-0.177799 0.689098 -0.072681
-0.177356 0.689199 -0.072710
-0.176915 0.689309 -0.072740
-0.176475 0.689420 -0.072770
-0.176051 0.689610 -0.072790
-0.175628 0.689803 -0.072811
-0.175209 0.689999 -0.072832
-0.174827 0.690241 -0.072862
-0.174445 0.690483 -0.072891
-0.174065 0.690732 -0.072922
-0.173695 0.691012 -0.072955
-0.173324 0.691293 -0.072989
-0.172960 0.691585 -0.073025
-0.172612 0.691910 -0.073067
-0.172264 0.692234 -0.073109
-0.171913 0.692580 -0.073154
-0.171558 0.692959 -0.073204
-0.171203 0.693339 -0.073254
-0.170856 0.693742 -0.073310
-0.170518 0.694167 -0.073370
-0.170179 0.694593 -0.073431
-0.169845 0.695059 -0.073501
-0.169513 0.695552 -0.073577
-0.169181 0.696044 -0.073653
-0.168871 0.696615 -0.073740
-0.168569 0.697218 -0.073832
-0.168267 0.697821 -0.073924
-0.168003 0.698549 -0.074023
-0.167748 0.699305 -0.074125
-0.167493 0.700061 -0.074226
-0.167277 0.700947 -0.074343
-0.167063 0.701846 -0.074462
-0.166848 0.702783 -0.074580
-0.166560 0.705507 -0.074678
-0.166271 0.708231 -0.074776
-0.165979 0.710701 -0.074872
-0.165657 0.711392 -0.074951
-0.165335 0.712084 -0.075031
-0.165013 0.712720 -0.075103
-0.164692 0.713171 -0.075151
-0.164371 0.713623 -0.075199
-0.164049 0.714053 -0.075241
-0.163724 0.714440 -0.075274
-0.163399 0.714826 -0.075306
-0.163066 0.715176 -0.075334
-0.162724 0.715479 -0.075356
-0.162382 0.715782 -0.075378
-0.162033 0.716039 -0.075394
-0.161678 0.716258 -0.075406
-0.161322 0.716476 -0.075419
-0.160961 0.716655 -0.075428
-0.160597 0.716812 -0.075437
-0.160232 0.716969 -0.075446
-0.159851 0.717088 -0.075452
-0.159465 0.717195 -0.075457
-0.159078 0.717301 -0.075463
-0.158680 0.717379 -0.075464
-0.158279 0.717452 -0.075464
-0.157878 0.717525 -0.075465
-0.157453 0.717571 -0.075461
-0.157027 0.717617 -0.075457
-0.156601 0.717663 -0.075453
-0.156170 0.717709 -0.075449
-0.155740 0.717755 -0.075444
-0.155308 0.717800 -0.075440
-0.154867 0.717841 -0.075436
-0.154426 0.717882 -0.075431
-0.153984 0.717923 -0.075427
-0.153538 0.717964 -0.075425
-0.153093 0.718004 -0.075422
-0.152646 0.718044 -0.075421
-0.152197 0.718081 -0.075420
-0.151748 0.718118 -0.075420
-0.151295 0.718156 -0.075419
-0.150839 0.718195 -0.075416
-0.150383 0.718234 -0.075413
-0.149926 0.718272 -0.075410
-0.149470 0.718310 -0.075408
-0.149013 0.718347 -0.075406
-0.148552 0.718382 -0.075405
-0.148090 0.718414 -0.075404
-0.147628 0.718447 -0.075403
-0.147165 0.718482 -0.075401
-0.146702 0.718517 -0.075399
-0.146239 0.718553 -0.075397
-0.145777 0.718593 -0.075395
-0.145314 0.718633 -0.075393
-0.144851 0.718673 -0.075391
-0.144391 0.718722 -0.075390
-0.143931 0.718771 -0.075389
-0.143471 0.718821 -0.075389
-0.143015 0.718875 -0.075390
-0.142559 0.718929 -0.075392
-0.142103 0.718984 -0.075393
-0.141649 0.719046 -0.075397
-0.141194 0.719108 -0.075400
-0.140741 0.719172 -0.075405
-0.140288 0.719239 -0.075411
-0.139836 0.719307 -0.075417
-0.139384 0.719378 -0.075426
-0.138933 0.719455 -0.075437
-0.138482 0.719531 -0.075449
-0.138031 0.719613 -0.075460
-0.137579 0.719699 -0.075470
-0.137127 0.719785 -0.075480
-0.136677 0.719877 -0.075490
-0.136228 0.719972 -0.075501
-0.135779 0.720067 -0.075512
-0.135331 0.720168 -0.075521
-0.134883 0.720270 -0.075529
-0.134435 0.720373 -0.075538
-0.133989 0.720479 -0.075545
-0.133543 0.720585 -0.075553
-0.133097 0.720692 -0.075561
-0.132653 0.720807 -0.075570
-0.132208 0.720923 -0.075580
-0.131764 0.721040 -0.075589
-0.131318 0.721160 -0.075602
-0.130873 0.721280 -0.075614
-0.130428 0.721402 -0.075628
-0.129985 0.721536 -0.075645
-0.129542 0.721670 -0.075662
-0.129099 0.721804 -0.075679
-0.128654 0.721942 -0.075694
-0.128209 0.722080 -0.075709
-0.127754 0.722199 -0.075731
-0.127280 0.722285 -0.075766
-0.126807 0.722370 -0.075800
-0.126347 0.722483 -0.075824
-0.125902 0.722628 -0.075834
-0.125458 0.722772 -0.075844
-0.125015 0.722922 -0.075853
-0.124573 0.723075 -0.075860
-0.124132 0.723228 -0.075868
-0.123693 0.723388 -0.075876
-0.123255 0.723551 -0.075885
-0.122818 0.723714 -0.075894
-0.122383 0.723887 -0.075904
-0.121949 0.724062 -0.075914
-0.121515 0.724237 -0.075924
-0.121080 0.724414 -0.075940
-0.120644 0.724591 -0.075958
-0.120208 0.724768 -0.075976
-0.119772 0.724947 -0.075993
-0.119337 0.725127 -0.076010
-0.118901 0.725307 -0.076028
-0.118465 0.725490 -0.076046
-0.118029 0.725672 -0.076064
-0.117594 0.725856 -0.076082
-0.117160 0.726044 -0.076099
-0.116726 0.726231 -0.076116
-0.116293 0.726420 -0.076133
-0.115863 0.726613 -0.076149
-0.115432 0.726805 -0.076164
-0.115002 0.727000 -0.076181
-0.114573 0.727199 -0.076200
-0.114144 0.727398 -0.076218
-0.113717 0.727600 -0.076237
-0.113291 0.727804 -0.076257
-0.112865 0.728007 -0.076277
-0.112436 0.728221 -0.076300
-0.112004 0.728440 -0.076325
-0.111571 0.728660 -0.076350
-0.111138 0.728892 -0.076375
-0.110705 0.729128 -0.076400
-0.110272 0.729364 -0.076424
-0.109835 0.729618 -0.076450
-0.109397 0.729876 -0.076477
-0.108959 0.730134 -0.076503
-0.108524 0.730414 -0.076530
-0.108089 0.730695 -0.076557
-0.107654 0.730976 -0.076584
-0.107223 0.731272 -0.076613
-0.106791 0.731567 -0.076642
-0.106361 0.731864 -0.076671
-0.105940 0.732177 -0.076703
-0.105519 0.732489 -0.076736
-0.105098 0.732805 -0.076771
-0.104677 0.733134 -0.076810
-0.104256 0.733463 -0.076850
-0.103833 0.733803 -0.076891
-0.103406 0.734164 -0.076934
-0.102978 0.734525 -0.076978
-0.102548 0.734894 -0.077025
-0.102115 0.735273 -0.077076
-0.101682 0.735653 -0.077128
-0.101248 0.736045 -0.077182
-0.100812 0.736447 -0.077239
-0.100377 0.736850 -0.077295
-0.099949 0.737265 -0.077357
-0.099526 0.737687 -0.077421
-0.099102 0.738108 -0.077486
-0.098687 0.738552 -0.077553
-0.098274 0.739004 -0.077621
-0.097861 0.739455 -0.077689
-0.097450 0.739985 -0.077758
-0.097038 0.740528 -0.077827
-0.096627 0.741071 -0.077897
-0.096208 0.741706 -0.077951
-0.095788 0.742345 -0.078005
-0.095369 0.742986 -0.078059
-0.094952 0.743669 -0.078113
-0.094534 0.744351 -0.078168
-0.094120 0.745056 -0.078229
-0.093723 0.745868 -0.078318
-0.093325 0.746680 -0.078408
-0.092949 0.747494 -0.078493
-0.092629 0.748312 -0.078567
-0.092309 0.749131 -0.078641
-0.091979 0.749946 -0.078713
-0.091634 0.750756 -0.078784
-0.091289 0.751567 -0.078855
-0.090963 0.753653 -0.079305
-0.090658 0.757097 -0.080159
-0.090353 0.760540 -0.081012
-0.090054 0.762414 -0.081414
-0.089760 0.763192 -0.081501
-0.089466 0.763969 -0.081587
-0.089128 0.764636 -0.081663
-0.088770 0.765253 -0.081734
-0.088412 0.765870 -0.081805
-0.087984 0.766416 -0.081857
-0.087539 0.766944 -0.081904
-0.087093 0.767472 -0.081951
-0.086611 0.767906 -0.081967
-0.086124 0.768329 -0.081979
-0.085637 0.768752 -0.081992
-0.085158 0.769109 -0.081978
-0.084679 0.769466 -0.081965
-0.084197 0.769805 -0.081949
-0.083693 0.769989 -0.081911
-0.083189 0.770174 -0.081873
-0.082683 0.770318 -0.081828
-0.082166 0.770317 -0.081759
-0.081648 0.770315 -0.081690
-0.081116 0.770269 -0.081636
-0.080551 0.770126 -0.081616
-0.079985 0.769983 -0.081597
-0.079447 0.769934 -0.081576
-0.078944 0.770013 -0.081555
-0.078442 0.770093 -0.081534
-0.077961 0.770141 -0.081499
-0.077500 0.770162 -0.081451
-0.077038 0.770184 -0.081403
-0.076576 0.770197 -0.081362
-0.076113 0.770205 -0.081325
-0.075650 0.770214 -0.081288
-0.075175 0.770231 -0.081279
-0.074695 0.770252 -0.081280
-0.074214 0.770272 -0.081282
-0.073542 0.770030 -0.081277
-0.072832 0.769739 -0.081271
-0.072123 0.769447 -0.081264
-0.071602 0.769510 -0.081281
-0.071091 0.769594 -0.081299
-0.070582 0.769681 -0.081316
-0.070087 0.769817 -0.081314
-0.069592 0.769953 -0.081311
-0.069100 0.770093 -0.081308
-0.068623 0.770258 -0.081300
-0.068146 0.770422 -0.081293
-0.067668 0.770582 -0.081283
-0.067188 0.770730 -0.081269
-0.066708 0.770878 -0.081254
-0.066231 0.771025 -0.081243
-0.065759 0.771171 -0.081237
-0.065288 0.771317 -0.081232
-0.064818 0.771470 -0.081228
-0.064350 0.771632 -0.081226
-0.063882 0.771793 -0.081225
-0.063414 0.771972 -0.081230
-0.062946 0.772164 -0.081240
-0.062478 0.772356 -0.081251
-0.062014 0.772570 -0.081267
-0.061551 0.772795 -0.081286
-0.061089 0.773020 -0.081305
-0.060623 0.773258 -0.081331
-0.060156 0.773498 -0.081359
-0.059688 0.773739 -0.081387
-0.059217 0.773994 -0.081419
-0.058744 0.774251 -0.081451
-0.058272 0.774507 -0.081483
-0.057802 0.774797 -0.081523
-0.057332 0.775087 -0.081563
-0.056862 0.775379 -0.081604
-0.056385 0.775696 -0.081648
-0.055907 0.776014 -0.081693
-0.055430 0.776337 -0.081738
-0.054951 0.776684 -0.081790
-0.054471 0.777031 -0.081841
-0.053989 0.777377 -0.081893
-0.053499 0.777723 -0.081944
-0.053010 0.778069 -0.081995
-0.052516 0.778411 -0.082045
-0.052015 0.778747 -0.082091
-0.051514 0.779083 -0.082137
-0.051002 0.779405 -0.082183
-0.050478 0.779713 -0.082231
-0.049954 0.780021 -0.082279
-0.049411 0.780365 -0.082321
-0.048857 0.780731 -0.082358
-0.048303 0.781098 -0.082396
-0.047752 0.781533 -0.082433
-0.047202 0.781995 -0.082471
-0.046653 0.782458 -0.082508
-0.046128 0.783009 -0.082556
-0.045608 0.783580 -0.082607
-0.045089 0.784151 -0.082658
-0.044674 0.784888 -0.082746
-0.281511 0.787217 -0.082492
-0.280646 0.786704 -0.082558
-0.279767 0.786254 -0.082645
-0.278888 0.785804 -0.082733
-0.278057 0.785527 -0.082812
-0.277240 0.785304 -0.082890
-0.276424 0.785080 -0.082967
-0.275686 0.785067 -0.083006
-0.274960 0.785086 -0.083041
-0.274234 0.785104 -0.083075
-0.273662 0.785324 -0.083130
-0.273094 0.785549 -0.083185
-0.272532 0.785783 -0.083241
-0.272043 0.786112 -0.083295
-0.271554 0.786441 -0.083350
-0.271076 0.786802 -0.083404
-0.270650 0.787300 -0.083457
-0.270224 0.787798 -0.083509
-0.269794 0.788327 -0.083567
-0.269355 0.788931 -0.083639
-0.268915 0.789535 -0.083710
-0.268488 0.790168 -0.083777
-0.268079 0.790845 -0.083837
-0.267671 0.791521 -0.083896
-0.267261 0.792205 -0.083972
-0.266847 0.792896 -0.084065
-0.266434 0.793587 -0.084157
-0.266040 0.794201 -0.084266
-0.265657 0.794765 -0.084387
-0.265275 0.795328 -0.084508
-0.264963 0.795882 -0.084620
-0.264682 0.796433 -0.084728
-0.264400 0.796983 -0.084836
-0.264195 0.797544 -0.084978
-0.264009 0.798107 -0.085127
-0.263823 0.798671 -0.085276
-0.263779 0.799697 -0.085469
-0.263749 0.800767 -0.085665
-0.263723 0.801850 -0.085863
-0.263950 0.803642 -0.086137
-0.264176 0.805435 -0.086411
-0.265145 0.809870 -0.086867
-0.271476 0.833390 -0.088641
-0.277807 0.856910 -0.090414
-0.289281 0.953175 -0.097120
-0.285393 0.937947 -0.095247
-0.262484 0.855735 -0.087669
-0.238692 0.770411 -0.079825
-0.216257 0.690082 -0.072444
-0.215153 0.688227 -0.072327
-0.214048 0.686372 -0.072210
-0.212975 0.684704 -0.072106
-0.212058 0.683989 -0.072066
-0.211140 0.683273 -0.072026
-0.210265 0.682707 -0.071996
-0.209505 0.682547 -0.071996
-0.208744 0.682387 -0.071995
-0.208029 0.682253 -0.072005
-0.207391 0.682165 -0.072034
-0.206752 0.682077 -0.072062
-0.206153 0.682059 -0.072079
-0.205598 0.682116 -0.072084
-0.205043 0.682174 -0.072088
-0.204509 0.682319 -0.072084
-0.203991 0.682528 -0.072073
-0.203473 0.682737 -0.072062
-0.202936 0.683042 -0.072057
-0.202391 0.683392 -0.072053
-0.201845 0.683741 -0.072049
-0.201300 0.684234 -0.072028
-0.200754 0.684766 -0.072003
-0.200208 0.685298 -0.071977
-0.199758 0.686010 -0.071982
-0.199320 0.686743 -0.071991
-0.198881 0.687476 -0.072000
-0.198626 0.688441 -0.072038
-0.198371 0.689406 -0.072076
-0.198174 0.690417 -0.072115
-0.198476 0.691837 -0.072155
-0.198778 0.693257 -0.072195
-0.205709 0.715379 -0.074075
-0.238103 0.817020 -0.083018
-0.270498 0.918661 -0.091961
-0.292874 0.989705 -0.098168
-0.293038 0.992907 -0.098307
-0.293202 0.996109 -0.098445
-0.292756 0.998231 -0.098473
-0.291454 0.998832 -0.098344
-0.290151 0.999434 -0.098214
-0.288821 0.999817 -0.098107
-0.287466 0.999998 -0.098020
-0.286111 1.000180 -0.097932
-0.284739 1.000293 -0.097833
-0.283357 1.000365 -0.097727
-0.281975 1.000437 -0.097621
-0.280383 0.999710 -0.097480
-0.278712 0.998684 -0.097327
-0.277041 0.997659 -0.097174
-0.265064 0.959797 -0.090251
-0.251006 0.914501 -0.081961
-0.236948 0.869204 -0.073671
-0.221690 0.811743 -0.073260
-0.206350 0.753454 -0.073385
-0.191604 0.697498 -0.073504
-0.190915 0.696751 -0.073496
-0.190226 0.696003 -0.073488
-0.189538 0.695272 -0.073478
-0.188851 0.694633 -0.073455
-0.188164 0.693995 -0.073432
-0.187480 0.693376 -0.073408
-0.186801 0.692820 -0.073378
-0.186122 0.692265 -0.073348
-0.185465 0.691761 -0.073315
-0.184847 0.691355 -0.073278
-0.184230 0.690948 -0.073241
-0.183633 0.690604 -0.073206
-0.183062 0.690333 -0.073175
-0.182490 0.690063 -0.073143
-0.181936 0.689858 -0.073126
-0.181397 0.689706 -0.073120
-0.180857 0.689553 -0.073114
-0.180339 0.689465 -0.073117
-0.179833 0.689411 -0.073123
-0.179326 0.689356 -0.073130
-0.178848 0.689358 -0.073149
-0.178379 0.689377 -0.073173
-0.177910 0.689395 -0.073197
-0.177464 0.689488 -0.073224
-0.177021 0.689592 -0.073253
-0.176578 0.689695 -0.073281
-0.176152 0.689877 -0.073298
-0.175726 0.690060 -0.073315
-0.175304 0.690248 -0.073333
-0.174915 0.690488 -0.073359
-0.174526 0.690727 -0.073385
-0.174139 0.690974 -0.073412
-0.173763 0.691252 -0.073442
-0.173386 0.691529 -0.073473
-0.173016 0.691818 -0.073507
-0.172664 0.692135 -0.073548
-0.172311 0.692452 -0.073588
-0.171957 0.692790 -0.073632
-0.171600 0.693159 -0.073681
-0.171242 0.693529 -0.073730
-0.170893 0.693921 -0.073783
-0.170552 0.694334 -0.073841
-0.170211 0.694748 -0.073899
-0.169874 0.695198 -0.073966
-0.169539 0.695674 -0.074038
-0.169204 0.696149 -0.074110
-0.168889 0.696694 -0.074194
-0.168583 0.697268 -0.074282
-0.168276 0.697842 -0.074370
-0.168000 0.698534 -0.074464
-0.167731 0.699253 -0.074560
-0.167463 0.699972 -0.074655
-0.167228 0.700808 -0.074765
-0.166995 0.701655 -0.074875
-0.166762 0.702538 -0.074986
-0.166457 0.705051 -0.075080
-0.166153 0.707565 -0.075174
-0.165847 0.709851 -0.075266
-0.165534 0.710553 -0.075343
-0.165221 0.711255 -0.075420
-0.164905 0.711903 -0.075491
-0.164581 0.712371 -0.075540
-0.164256 0.712839 -0.075589
-0.163931 0.713282 -0.075632
-0.163603 0.713675 -0.075665
-0.163275 0.714069 -0.075698
-0.162940 0.714427 -0.075726
-0.162597 0.714741 -0.075748
-0.162255 0.715055 -0.075770
-0.161905 0.715327 -0.075787
-0.161549 0.715565 -0.075800
-0.161194 0.715803 -0.075813
-0.160832 0.715994 -0.075824
-0.160467 0.716160 -0.075833
-0.160102 0.716327 -0.075842
-0.159722 0.716454 -0.075849
-0.159336 0.716569 -0.075854
-0.158950 0.716684 -0.075860
-0.158551 0.716770 -0.075861
-0.158151 0.716850 -0.075862
-0.157750 0.716930 -0.075863
-0.157326 0.716983 -0.075860
-0.156900 0.717035 -0.075856
-0.156475 0.717087 -0.075853
-0.156045 0.717137 -0.075849
-0.155615 0.717188 -0.075846
-0.155184 0.717237 -0.075842
-0.154744 0.717282 -0.075839
-0.154303 0.717327 -0.075835
-0.153862 0.717372 -0.075832
-0.153417 0.717414 -0.075831
-0.152972 0.717457 -0.075829
-0.152525 0.717499 -0.075828
-0.152076 0.717539 -0.075829
-0.151628 0.717580 -0.075829
-0.151176 0.717622 -0.075829
-0.150721 0.717665 -0.075826
-0.150266 0.717708 -0.075824
-0.149811 0.717752 -0.075822
-0.149355 0.717794 -0.075820
-0.148900 0.717837 -0.075819
-0.148441 0.717876 -0.075818
-0.147981 0.717914 -0.075817
-0.147520 0.717951 -0.075816
-0.147059 0.717991 -0.075815
-0.146598 0.718031 -0.075813
-0.146136 0.718072 -0.075812
-0.145675 0.718116 -0.075811
-0.145214 0.718161 -0.075810
-0.144753 0.718206 -0.075809
-0.144295 0.718260 -0.075809
-0.143836 0.718315 -0.075810
-0.143378 0.718371 -0.075811
-0.142924 0.718431 -0.075814
-0.142469 0.718492 -0.075816
-0.142015 0.718554 -0.075819
-0.141563 0.718623 -0.075824
-0.141110 0.718691 -0.075828
-0.140658 0.718762 -0.075832
-0.140208 0.718837 -0.075839
-0.139757 0.718912 -0.075845
-0.139307 0.718991 -0.075854
-0.138857 0.719074 -0.075865
-0.138407 0.719158 -0.075877
-0.137957 0.719246 -0.075887
-0.137506 0.719339 -0.075898
-0.137056 0.719431 -0.075908
-0.136607 0.719530 -0.075919
-0.136159 0.719631 -0.075930
-0.135712 0.719733 -0.075941
-0.135266 0.719841 -0.075951
-0.134820 0.719951 -0.075960
-0.134375 0.720061 -0.075969
-0.133931 0.720174 -0.075978
-0.133488 0.720287 -0.075987
-0.133045 0.720401 -0.075996
-0.132604 0.720523 -0.076005
-0.132164 0.720645 -0.076015
-0.131722 0.720767 -0.076025
-0.131272 0.720877 -0.076046
-0.130821 0.720986 -0.076068
-0.130372 0.721101 -0.076088
-0.129931 0.721241 -0.076106
-0.129490 0.721382 -0.076124
-0.129049 0.721524 -0.076141
-0.128606 0.721667 -0.076158
-0.128163 0.721811 -0.076174
-0.127714 0.721943 -0.076195
-0.127253 0.722056 -0.076224
-0.126792 0.722168 -0.076252
-0.126340 0.722299 -0.076273
-0.125897 0.722451 -0.076285
-0.125455 0.722604 -0.076297
-0.125014 0.722761 -0.076307
-0.124575 0.722923 -0.076317
-0.124136 0.723084 -0.076326
-0.123699 0.723252 -0.076336
-0.123264 0.723424 -0.076346
-0.122828 0.723595 -0.076357
-0.122395 0.723776 -0.076368
-0.121962 0.723960 -0.076379
-0.121529 0.724143 -0.076391
-0.121095 0.724329 -0.076408
-0.120660 0.724516 -0.076426
-0.120225 0.724703 -0.076444
-0.119790 0.724891 -0.076462
-0.119355 0.725080 -0.076480
-0.118921 0.725269 -0.076498
-0.118486 0.725462 -0.076517
-0.118051 0.725654 -0.076536
-0.117616 0.725847 -0.076554
-0.117183 0.726044 -0.076573
-0.116750 0.726241 -0.076591
-0.116318 0.726439 -0.076609
-0.115888 0.726641 -0.076626
-0.115458 0.726842 -0.076643
-0.115029 0.727047 -0.076662
-0.114600 0.727255 -0.076682
-0.114171 0.727464 -0.076702
-0.113745 0.727674 -0.076723
-0.113321 0.727886 -0.076746
-0.112896 0.728099 -0.076768
-0.112467 0.728321 -0.076794
-0.112036 0.728550 -0.076822
-0.111604 0.728779 -0.076849
-0.111172 0.729021 -0.076877
-0.110741 0.729268 -0.076906
-0.110309 0.729514 -0.076934
-0.109874 0.729781 -0.076964
-0.109437 0.730052 -0.076994
-0.109001 0.730323 -0.077024
-0.108568 0.730617 -0.077055
-0.108136 0.730913 -0.077087
-0.107704 0.731209 -0.077119
-0.107276 0.731520 -0.077152
-0.106848 0.731831 -0.077185
-0.106421 0.732144 -0.077219
-0.106005 0.732474 -0.077258
-0.105589 0.732804 -0.077296
-0.105173 0.733138 -0.077336
-0.104757 0.733487 -0.077381
-0.104341 0.733837 -0.077426
-0.103923 0.734198 -0.077473
-0.103500 0.734585 -0.077523
-0.103077 0.734971 -0.077573
-0.102651 0.735365 -0.077626
-0.102222 0.735769 -0.077684
-0.101793 0.736174 -0.077742
-0.101363 0.736591 -0.077803
-0.100932 0.737019 -0.077866
-0.100501 0.737447 -0.077929
-0.100073 0.737895 -0.077995
-0.099647 0.738353 -0.078062
-0.099221 0.738812 -0.078130
-0.098803 0.739299 -0.078197
-0.098387 0.739796 -0.078265
-0.097970 0.740293 -0.078333
-0.097559 0.740868 -0.078409
-0.097148 0.741455 -0.078487
-0.096737 0.742042 -0.078565
-0.096343 0.742730 -0.078629
-0.095949 0.743421 -0.078692
-0.095555 0.744117 -0.078755
-0.095158 0.744875 -0.078815
-0.094760 0.745633 -0.078874
-0.094365 0.746589 -0.078980
-0.093983 0.748497 -0.079313
-0.093601 0.750406 -0.079645
-0.093238 0.751994 -0.079905
-0.092926 0.752744 -0.079974
-0.092614 0.753494 -0.080044
-0.092290 0.754216 -0.080109
-0.091946 0.754892 -0.080169
-0.091602 0.755569 -0.080228
-0.091260 0.757038 -0.080529
-0.090918 0.759349 -0.081085
-0.090576 0.761661 -0.081641
-0.090230 0.762959 -0.081906
-0.089880 0.763548 -0.081967
-0.089531 0.764138 -0.082029
-0.089144 0.764638 -0.082079
-0.088741 0.765098 -0.082124
-0.088337 0.765559 -0.082170
-0.087886 0.765975 -0.082198
-0.087423 0.766380 -0.082221
-0.086961 0.766785 -0.082244
-0.086466 0.767115 -0.082243
-0.085968 0.767437 -0.082238
-0.085469 0.767758 -0.082234
-0.084989 0.768054 -0.082217
-0.084509 0.768349 -0.082200
-0.084027 0.768632 -0.082182
-0.083525 0.768808 -0.082149
-0.083022 0.768984 -0.082116
-0.082519 0.769127 -0.082078
-0.082011 0.769145 -0.082023
-0.081503 0.769163 -0.081968
-0.080986 0.769148 -0.081921
-0.080450 0.769063 -0.081894
-0.079914 0.768977 -0.081866
-0.079394 0.768950 -0.081840
-0.078897 0.769004 -0.081816
-0.078400 0.769057 -0.081791
-0.077894 0.769093 -0.081759
-0.077379 0.769114 -0.081719
-0.076864 0.769135 -0.081679
-0.076372 0.769155 -0.081659
-0.075893 0.769176 -0.081652
-0.075414 0.769196 -0.081644
-0.074924 0.769217 -0.081650
-0.074429 0.769237 -0.081662
-0.073935 0.769258 -0.081674
-0.073321 0.769124 -0.081678
-0.072685 0.768961 -0.081682
-0.072049 0.768798 -0.081685
-0.071540 0.768888 -0.081700
-0.071038 0.768993 -0.081716
-0.070537 0.769100 -0.081731
-0.070049 0.769261 -0.081729
-0.069561 0.769422 -0.081727
-0.069075 0.769589 -0.081724
-0.068604 0.769785 -0.081718
-0.068133 0.769982 -0.081713
-0.067661 0.770174 -0.081706
-0.067186 0.770357 -0.081696
-0.066711 0.770540 -0.081686
-0.066237 0.770723 -0.081679
-0.065768 0.770905 -0.081677
-0.065299 0.771088 -0.081676
-0.064831 0.771277 -0.081676
-0.064366 0.771473 -0.081678
-0.063900 0.771670 -0.081681
-0.063435 0.771882 -0.081690
-0.062970 0.772106 -0.081704
-0.062505 0.772330 -0.081717
-0.062043 0.772572 -0.081737
-0.061582 0.772823 -0.081759
-0.061121 0.773073 -0.081781
-0.060656 0.773331 -0.081810
-0.060190 0.773590 -0.081842
-0.059724 0.773849 -0.081873
-0.059252 0.774118 -0.081908
-0.058779 0.774388 -0.081944
-0.058307 0.774658 -0.081980
-0.057836 0.774958 -0.082023
-0.057365 0.775258 -0.082067
-0.056893 0.775560 -0.082111
-0.056414 0.775884 -0.082159
-0.055934 0.776207 -0.082207
-0.055454 0.776536 -0.082256
-0.054972 0.776889 -0.082310
-0.054490 0.777241 -0.082364
-0.054006 0.777592 -0.082418
-0.053515 0.777939 -0.082472
-0.053024 0.778287 -0.082526
-0.052529 0.778631 -0.082577
-0.052028 0.778969 -0.082625
-0.051527 0.779306 -0.082673
-0.051015 0.779630 -0.082721
-0.050491 0.779940 -0.082770
-0.049968 0.780250 -0.082819
-0.049426 0.780596 -0.082861
-0.048872 0.780964 -0.082899
-0.048319 0.781332 -0.082938
-0.047767 0.781769 -0.082974
-0.047217 0.782234 -0.083010
-0.046667 0.782698 -0.083046
-0.046141 0.783249 -0.083093
-0.045620 0.783820 -0.083142
-0.045099 0.784390 -0.083191
-0.044683 0.785125 -0.083277
-0.281599 0.787440 -0.083033
-0.280730 0.786916 -0.083099
-0.279848 0.786455 -0.083187
-0.278966 0.785995 -0.083276
-0.278131 0.785711 -0.083357
-0.277311 0.785480 -0.083436
-0.276491 0.785250 -0.083515
-0.275749 0.785233 -0.083556
-0.275019 0.785249 -0.083591
-0.274289 0.785264 -0.083626
-0.273713 0.785482 -0.083680
-0.273141 0.785704 -0.083735
-0.272575 0.785935 -0.083790
-0.272082 0.786260 -0.083843
-0.271588 0.786585 -0.083896
-0.271106 0.786941 -0.083949
-0.270673 0.787432 -0.083999
-0.270240 0.787923 -0.084048
-0.269804 0.788446 -0.084104
-0.269358 0.789049 -0.084173
-0.268911 0.789651 -0.084243
-0.268479 0.790284 -0.084308
-0.268068 0.790966 -0.084367
-0.267657 0.791648 -0.084426
-0.267245 0.792341 -0.084502
-0.266832 0.793048 -0.084597
-0.266419 0.793754 -0.084691
-0.266025 0.794384 -0.084804
-0.265645 0.794964 -0.084930
-0.265265 0.795544 -0.085056
-0.265004 0.796148 -0.085165
-0.264793 0.796762 -0.085266
-0.264582 0.797376 -0.085367
-0.264466 0.798026 -0.085530
-0.264374 0.798684 -0.085707
-0.264281 0.799342 -0.085885
-0.264351 0.800637 -0.086126
-0.264437 0.801993 -0.086373
-0.264529 0.803363 -0.086622
-0.264947 0.805537 -0.086976
-0.265365 0.807711 -0.087329
-0.267240 0.814858 -0.088039
-0.293522 0.972363 -0.100157
-0.290069 0.961244 -0.099065
-0.265700 0.871567 -0.090406
-0.240358 0.778239 -0.081395
-0.216467 0.690388 -0.072917
-0.215360 0.688562 -0.072801
-0.214253 0.686737 -0.072685
-0.213175 0.685093 -0.072581
-0.212246 0.684372 -0.072540
-0.211317 0.683651 -0.072499
-0.210429 0.683075 -0.072467
-0.209654 0.682896 -0.072464
-0.208879 0.682717 -0.072460
-0.208151 0.682565 -0.072468
-0.207503 0.682460 -0.072497
-0.206855 0.682355 -0.072525
-0.206249 0.682322 -0.072543
-0.205687 0.682370 -0.072549
-0.205125 0.682418 -0.072555
-0.204588 0.682555 -0.072552
-0.204069 0.682756 -0.072542
-0.203549 0.682957 -0.072532
-0.203011 0.683255 -0.072528
-0.202465 0.683599 -0.072525
-0.201919 0.683942 -0.072523
-0.201372 0.684427 -0.072503
-0.200825 0.684949 -0.072477
-0.200278 0.685471 -0.072452
-0.199823 0.686169 -0.072460
-0.199379 0.686887 -0.072472
-0.198936 0.687605 -0.072484
-0.198674 0.688556 -0.072528
-0.198413 0.689508 -0.072572
-0.198201 0.690494 -0.072618
-0.198421 0.691786 -0.072677
-0.198640 0.693077 -0.072737
-0.205483 0.715080 -0.074690
-0.237763 0.816641 -0.083916
-0.270042 0.918202 -0.093141
-0.292291 0.989072 -0.099546
-0.292295 0.991888 -0.099693
-0.292299 0.994704 -0.099841
-0.291798 0.996633 -0.099913
-0.290585 0.997312 -0.099879
-0.289372 0.997992 -0.099845
-0.288140 0.998475 -0.099792
-0.286890 0.998779 -0.099723
-0.285640 0.999082 -0.099653
-0.284342 0.999255 -0.099547
-0.283015 0.999349 -0.099419
-0.281688 0.999443 -0.099291
-0.280255 0.999065 -0.099131
-0.278782 0.998510 -0.098959
-0.277310 0.997956 -0.098788
-0.271165 0.980667 -0.095606
-0.264077 0.960001 -0.091816
-0.256989 0.939335 -0.088026
-0.235585 0.860499 -0.083352
-0.213207 0.777705 -0.078618
-0.191710 0.698236 -0.074076
-0.191059 0.697475 -0.074065
-0.190409 0.696714 -0.074054
-0.189752 0.695965 -0.074042
-0.189061 0.695290 -0.074020
-0.188369 0.694615 -0.073997
-0.187679 0.693964 -0.073973
-0.186993 0.693382 -0.073940
-0.186307 0.692801 -0.073908
-0.185644 0.692271 -0.073873
-0.185021 0.691835 -0.073832
-0.184399 0.691399 -0.073792
-0.183798 0.691031 -0.073753
-0.183221 0.690741 -0.073716
-0.182645 0.690452 -0.073679
-0.182087 0.690231 -0.073659
-0.181544 0.690064 -0.073651
-0.181000 0.689896 -0.073643
-0.180477 0.689801 -0.073644
-0.179965 0.689742 -0.073649
-0.179452 0.689683 -0.073654
-0.178970 0.689676 -0.073671
-0.178495 0.689684 -0.073692
-0.178021 0.689692 -0.073712
-0.177572 0.689777 -0.073739
-0.177127 0.689874 -0.073765
-0.176681 0.689970 -0.073792
-0.176253 0.690143 -0.073806
-0.175824 0.690317 -0.073819
-0.175398 0.690496 -0.073833
-0.175003 0.690734 -0.073856
-0.174607 0.690972 -0.073878
-0.174213 0.691216 -0.073901
-0.173831 0.691491 -0.073929
-0.173448 0.691765 -0.073958
-0.173072 0.692050 -0.073989
-0.172715 0.692360 -0.074029
-0.172358 0.692669 -0.074068
-0.172000 0.692999 -0.074111
-0.171641 0.693359 -0.074158
-0.171282 0.693719 -0.074205
-0.170930 0.694100 -0.074256
-0.170587 0.694501 -0.074312
-0.170244 0.694902 -0.074368
-0.169903 0.695337 -0.074431
-0.169565 0.695796 -0.074499
-0.169227 0.696254 -0.074568
-0.168908 0.696774 -0.074648
-0.168596 0.697318 -0.074732
-0.168284 0.697863 -0.074816
-0.167997 0.698519 -0.074905
-0.167715 0.699201 -0.074994
-0.167432 0.699883 -0.075084
-0.167179 0.700669 -0.075186
-0.166928 0.701465 -0.075289
-0.166675 0.702293 -0.075392
-0.166355 0.704596 -0.075482
-0.166034 0.706898 -0.075572
-0.165716 0.709001 -0.075660
-0.165411 0.709713 -0.075735
-0.165106 0.710426 -0.075809
-0.164797 0.711085 -0.075878
-0.164469 0.711570 -0.075929
-0.164142 0.712054 -0.075979
-0.163813 0.712511 -0.076023
-0.163482 0.712911 -0.076056
-0.163151 0.713311 -0.076089
-0.162814 0.713678 -0.076117
-0.162471 0.714003 -0.076140
-0.162128 0.714328 -0.076163
-0.161777 0.714615 -0.076180
-0.161421 0.714872 -0.076194
-0.161065 0.715129 -0.076208
-0.160703 0.715333 -0.076219
-0.160338 0.715509 -0.076229
-0.159972 0.715684 -0.076238
-0.159592 0.715821 -0.076245
-0.159207 0.715944 -0.076251
-0.158821 0.716068 -0.076257
-0.158423 0.716161 -0.076259
-0.158023 0.716248 -0.076261
-0.157622 0.716336 -0.076262
-0.157199 0.716395 -0.076259
-0.156774 0.716453 -0.076256
-0.156349 0.716511 -0.076253
-0.155920 0.716566 -0.076250
-0.155491 0.716621 -0.076247
-0.155060 0.716675 -0.076245
-0.154620 0.716724 -0.076242
-0.154181 0.716773 -0.076239
-0.153740 0.716820 -0.076237
-0.153295 0.716865 -0.076236
-0.152850 0.716910 -0.076235
-0.152404 0.716954 -0.076236
-0.151956 0.716998 -0.076237
-0.151508 0.717042 -0.076238
-0.151057 0.717088 -0.076238
-0.150603 0.717136 -0.076237
-0.150149 0.717183 -0.076235
-0.149695 0.717231 -0.076233
-0.149241 0.717279 -0.076232
-0.148787 0.717327 -0.076231
-0.148330 0.717371 -0.076230
-0.147871 0.717414 -0.076229
-0.147412 0.717456 -0.076229
-0.146952 0.717500 -0.076228
-0.146493 0.717545 -0.076227
-0.146033 0.717590 -0.076227
-0.145574 0.717639 -0.076227
-0.145114 0.717689 -0.076227
-0.144655 0.717738 -0.076227
-0.144198 0.717799 -0.076229
-0.143741 0.717859 -0.076231
-0.143285 0.717920 -0.076233
-0.142832 0.717987 -0.076237
-0.142379 0.718054 -0.076241
-0.141927 0.718123 -0.076245
-0.141476 0.718199 -0.076250
-0.141026 0.718275 -0.076255
-0.140576 0.718353 -0.076260
-0.140127 0.718435 -0.076267
-0.139678 0.718517 -0.076274
-0.139229 0.718603 -0.076282
-0.138781 0.718694 -0.076293
-0.138333 0.718784 -0.076304
-0.137883 0.718879 -0.076315
-0.137434 0.718978 -0.076326
-0.136984 0.719077 -0.076336
-0.136536 0.719182 -0.076347
-0.136091 0.719290 -0.076359
-0.135645 0.719399 -0.076371
-0.135201 0.719514 -0.076381
-0.134758 0.719631 -0.076391
-0.134314 0.719749 -0.076401
-0.133874 0.719869 -0.076411
-0.133434 0.719989 -0.076420
-0.132994 0.720110 -0.076430
-0.132556 0.720238 -0.076440
-0.132119 0.720367 -0.076450
-0.131681 0.720494 -0.076461
-0.131225 0.720593 -0.076491
-0.130770 0.720692 -0.076521
-0.130316 0.720799 -0.076549
-0.129877 0.720947 -0.076567
-0.129438 0.721095 -0.076585
-0.128999 0.721243 -0.076603
-0.128558 0.721393 -0.076621
-0.128117 0.721542 -0.076639
-0.127674 0.721688 -0.076659
-0.127225 0.721827 -0.076682
-0.126777 0.721966 -0.076704
-0.126332 0.722115 -0.076723
-0.125892 0.722275 -0.076736
-0.125452 0.722436 -0.076750
-0.125014 0.722601 -0.076762
-0.124577 0.722771 -0.076773
-0.124140 0.722940 -0.076784
-0.123706 0.723117 -0.076796
-0.123272 0.723297 -0.076808
-0.122838 0.723477 -0.076820
-0.122406 0.723666 -0.076832
-0.121975 0.723858 -0.076845
-0.121543 0.724049 -0.076858
-0.121110 0.724245 -0.076875
-0.120676 0.724441 -0.076893
-0.120242 0.724637 -0.076912
-0.119808 0.724835 -0.076930
-0.119374 0.725033 -0.076949
-0.118940 0.725232 -0.076968
-0.118506 0.725433 -0.076987
-0.118072 0.725635 -0.077007
-0.117639 0.725837 -0.077027
-0.117206 0.726044 -0.077046
-0.116774 0.726251 -0.077065
-0.116342 0.726458 -0.077084
-0.115913 0.726669 -0.077103
-0.115484 0.726880 -0.077122
-0.115055 0.727094 -0.077142
-0.114627 0.727312 -0.077164
-0.114199 0.727530 -0.077186
-0.113773 0.727749 -0.077209
-0.113350 0.727969 -0.077234
-0.112927 0.728190 -0.077260
-0.112499 0.728421 -0.077288
-0.112068 0.728660 -0.077318
-0.111637 0.728898 -0.077348
-0.111207 0.729150 -0.077380
-0.110776 0.729407 -0.077411
-0.110346 0.729665 -0.077443
-0.109912 0.729944 -0.077477
-0.109477 0.730228 -0.077511
-0.109042 0.730512 -0.077545
-0.108612 0.730820 -0.077581
-0.108183 0.731131 -0.077617
-0.107754 0.731442 -0.077653
-0.107329 0.731769 -0.077691
-0.106904 0.732095 -0.077729
-0.106481 0.732424 -0.077768
-0.106070 0.732771 -0.077812
-0.105659 0.733119 -0.077856
-0.105248 0.733471 -0.077901
-0.104837 0.733841 -0.077952
-0.104427 0.734210 -0.078003
-0.104013 0.734594 -0.078055
-0.103594 0.735005 -0.078111
-0.103176 0.735417 -0.078168
-0.102754 0.735836 -0.078228
-0.102329 0.736265 -0.078292
-0.101904 0.736694 -0.078357
-0.101478 0.737137 -0.078424
-0.101051 0.737591 -0.078494
-0.100624 0.738044 -0.078563
-0.100196 0.738525 -0.078633
-0.099769 0.739020 -0.078703
-0.099341 0.739515 -0.078773
-0.098919 0.740046 -0.078842
-0.098499 0.740589 -0.078909
-0.098079 0.741131 -0.078976
-0.097668 0.741750 -0.079060
-0.097257 0.742382 -0.079146
-0.096847 0.743013 -0.079233
-0.096478 0.743753 -0.079306
-0.096110 0.744497 -0.079380
-0.095742 0.745247 -0.079452
-0.095364 0.746081 -0.079516
-0.094985 0.746915 -0.079580
-0.094609 0.748123 -0.079731
-0.094243 0.751127 -0.080307
-0.093877 0.754132 -0.080882
-0.093528 0.756495 -0.081317
-0.093223 0.757176 -0.081382
-0.092919 0.757857 -0.081447
-0.092600 0.758486 -0.081505
-0.092258 0.759028 -0.081553
-0.091916 0.759571 -0.081602
-0.091556 0.760422 -0.081752
-0.091178 0.761602 -0.082011
-0.090799 0.762782 -0.082270
-0.090405 0.763503 -0.082398
-0.090000 0.763905 -0.082434
-0.089595 0.764307 -0.082470
-0.089160 0.764640 -0.082495
-0.088711 0.764944 -0.082515
-0.088262 0.765248 -0.082534
-0.087788 0.765534 -0.082538
-0.087308 0.765816 -0.082538
-0.086828 0.766097 -0.082538
-0.086321 0.766324 -0.082518
-0.085811 0.766544 -0.082497
-0.085301 0.766765 -0.082475
-0.084821 0.766999 -0.082456
-0.084340 0.767232 -0.082436
-0.083857 0.767459 -0.082415
-0.083356 0.767627 -0.082387
-0.082856 0.767795 -0.082360
-0.082355 0.767936 -0.082329
-0.081857 0.767974 -0.082287
-0.081358 0.768012 -0.082245
-0.080857 0.768028 -0.082206
-0.080349 0.768000 -0.082171
-0.079842 0.767971 -0.082135
-0.079342 0.767966 -0.082103
-0.078850 0.767994 -0.082076
-0.078358 0.768021 -0.082048
-0.077826 0.768045 -0.082018
-0.077258 0.768065 -0.081987
-0.076690 0.768086 -0.081955
-0.076168 0.768114 -0.081957
-0.075673 0.768146 -0.081978
-0.075177 0.768179 -0.081999
-0.074672 0.768202 -0.082021
-0.074164 0.768223 -0.082043
-0.073655 0.768243 -0.082065
-0.073101 0.768218 -0.082080
-0.072538 0.768184 -0.082093
-0.071975 0.768149 -0.082106
-0.071478 0.768266 -0.082119
-0.070985 0.768391 -0.082133
-0.070492 0.768519 -0.082146
-0.070011 0.768706 -0.082144
-0.069529 0.768892 -0.082142
-0.069050 0.769085 -0.082140
-0.068586 0.769313 -0.082136
-0.068121 0.769541 -0.082133
-0.067655 0.769766 -0.082129
-0.067184 0.769985 -0.082123
-0.066713 0.770203 -0.082118
-0.066244 0.770422 -0.082115
-0.065777 0.770640 -0.082117
-0.065310 0.770859 -0.082119
-0.064845 0.771083 -0.082124
-0.064382 0.771315 -0.082130
-0.063919 0.771547 -0.082137
-0.063456 0.771792 -0.082150
-0.062994 0.772048 -0.082167
-0.062532 0.772304 -0.082184
-0.062072 0.772573 -0.082207
-0.061613 0.772850 -0.082232
-0.061153 0.773126 -0.082257
-0.060689 0.773404 -0.082290
-0.060224 0.773682 -0.082325
-0.059759 0.773960 -0.082360
-0.059287 0.774242 -0.082398
-0.058814 0.774526 -0.082437
-0.058341 0.774809 -0.082477
-0.057869 0.775119 -0.082524
-0.057397 0.775429 -0.082571
-0.056924 0.775741 -0.082618
-0.056442 0.776071 -0.082669
-0.055961 0.776401 -0.082721
-0.055479 0.776736 -0.082773
-0.054994 0.777094 -0.082830
-0.054509 0.777451 -0.082887
-0.054022 0.777806 -0.082943
-0.053530 0.778156 -0.082999
-0.053038 0.778506 -0.083056
-0.052542 0.778851 -0.083109
-0.052041 0.779190 -0.083159
-0.051540 0.779530 -0.083209
-0.051028 0.779855 -0.083259
-0.050505 0.780167 -0.083309
-0.049982 0.780479 -0.083358
-0.049440 0.780826 -0.083402
-0.048887 0.781197 -0.083441
-0.048334 0.781567 -0.083480
-0.047783 0.782006 -0.083515
-0.047232 0.782472 -0.083550
-0.046682 0.782938 -0.083585
-0.046154 0.783489 -0.083630
-0.045632 0.784059 -0.083677
-0.045109 0.784630 -0.083725
-0.044692 0.785363 -0.083808
-0.281689 0.787665 -0.083576
-0.280817 0.787129 -0.083641
-0.279931 0.786658 -0.083731
-0.279044 0.786188 -0.083820
-0.278206 0.785897 -0.083903
-0.277383 0.785659 -0.083984
-0.276559 0.785422 -0.084064
-0.275814 0.785402 -0.084106
-0.275080 0.785414 -0.084142
-0.274346 0.785426 -0.084178
-0.273766 0.785641 -0.084232
-0.273190 0.785862 -0.084286
-0.272620 0.786090 -0.084341
-0.272122 0.786411 -0.084392
-0.271624 0.786732 -0.084444
-0.271137 0.787083 -0.084494
-0.270698 0.787568 -0.084541
-0.270259 0.788052 -0.084587
-0.269816 0.788570 -0.084640
-0.269363 0.789172 -0.084707
-0.268910 0.789774 -0.084775
-0.268473 0.790410 -0.084838
-0.268060 0.791097 -0.084895
-0.267646 0.791784 -0.084952
-0.267233 0.792487 -0.085028
-0.266821 0.793207 -0.085124
-0.266408 0.793927 -0.085219
-0.266025 0.794578 -0.085334
-0.265662 0.795182 -0.085461
-0.265300 0.795786 -0.085588
-0.265097 0.796446 -0.085701
-0.264961 0.797129 -0.085809
-0.264826 0.797812 -0.085916
-0.264810 0.798582 -0.086111
-0.264822 0.799373 -0.086327
-0.264835 0.800164 -0.086543
-0.266466 0.805990 -0.087173
-0.268251 0.812295 -0.087843
-0.270015 0.818535 -0.088508
-0.270535 0.821111 -0.088904
-0.297292 0.988626 -0.102838
-0.294201 0.980942 -0.102364
-0.268551 0.884962 -0.092794
-0.241853 0.784879 -0.082800
-0.216686 0.690679 -0.073398
-0.215576 0.688885 -0.073282
-0.214466 0.687091 -0.073166
-0.213383 0.685472 -0.073062
-0.212442 0.684747 -0.073019
-0.211500 0.684022 -0.072976
-0.210600 0.683438 -0.072942
-0.209810 0.683240 -0.072935
-0.209019 0.683042 -0.072927
-0.208279 0.682873 -0.072933
-0.207622 0.682751 -0.072961
-0.206964 0.682630 -0.072989
-0.206349 0.682585 -0.073007
-0.205780 0.682623 -0.073014
-0.205211 0.682661 -0.073021
-0.204670 0.682790 -0.073019
-0.204149 0.682983 -0.073010
-0.203629 0.683177 -0.073001
-0.203090 0.683469 -0.072998
-0.202542 0.683807 -0.072997
-0.201995 0.684144 -0.072996
-0.201447 0.684620 -0.072976
-0.200898 0.685133 -0.072950
-0.200350 0.685646 -0.072925
-0.199890 0.686329 -0.072935
-0.199442 0.687031 -0.072950
-0.198993 0.687734 -0.072965
-0.198724 0.688671 -0.073015
-0.198455 0.689609 -0.073065
-0.198229 0.690571 -0.073118
-0.198369 0.691747 -0.073197
-0.198509 0.692923 -0.073276
-0.205262 0.714810 -0.075300
-0.237416 0.816255 -0.084797
-0.269571 0.917700 -0.094294
-0.291690 0.988384 -0.100890
-0.291558 0.990862 -0.101055
-0.291426 0.993340 -0.101220
-0.290876 0.995095 -0.101333
-0.289737 0.995832 -0.101374
-0.288599 0.996568 -0.101414
-0.287444 0.997125 -0.101404
-0.286276 0.997517 -0.101346
-0.285108 0.997909 -0.101289
-0.283875 0.998129 -0.101177
-0.282603 0.998244 -0.101031
-0.281331 0.998360 -0.100886
-0.280046 0.998274 -0.100712
-0.278756 0.998114 -0.100529
-0.277467 0.997953 -0.100345
-0.275934 0.996910 -0.100102
-0.274352 0.995688 -0.099848
-0.272771 0.994467 -0.099594
-0.248396 0.905926 -0.092148
-0.222471 0.811445 -0.084214
-0.197491 0.720457 -0.076573
-0.194887 0.712169 -0.075885
-0.192283 0.703881 -0.075198
-0.189955 0.696690 -0.074607
-0.189260 0.695977 -0.074586
-0.188566 0.695264 -0.074564
-0.187872 0.694577 -0.074540
-0.187182 0.693967 -0.074506
-0.186491 0.693358 -0.074473
-0.185823 0.692800 -0.074436
-0.185196 0.692336 -0.074392
-0.184570 0.691871 -0.074348
-0.183964 0.691477 -0.074305
-0.183384 0.691167 -0.074263
-0.182804 0.690856 -0.074222
-0.182243 0.690617 -0.074198
-0.181695 0.690433 -0.074187
-0.181148 0.690249 -0.074176
-0.180620 0.690144 -0.074175
-0.180101 0.690079 -0.074178
-0.179583 0.690014 -0.074181
-0.179095 0.689997 -0.074195
-0.178615 0.689995 -0.074212
-0.178136 0.689992 -0.074229
-0.177684 0.690071 -0.074254
-0.177236 0.690161 -0.074279
-0.176788 0.690251 -0.074305
-0.176356 0.690414 -0.074315
-0.175926 0.690579 -0.074325
-0.175497 0.690749 -0.074336
-0.175095 0.690983 -0.074355
-0.174693 0.691217 -0.074374
-0.174293 0.691459 -0.074394
-0.173904 0.691731 -0.074419
-0.173514 0.692003 -0.074445
-0.173133 0.692283 -0.074474
-0.172770 0.692586 -0.074512
-0.172408 0.692888 -0.074550
-0.172046 0.693209 -0.074592
-0.171685 0.693560 -0.074637
-0.171323 0.693910 -0.074683
-0.170969 0.694280 -0.074732
-0.170623 0.694669 -0.074785
-0.170277 0.695057 -0.074838
-0.169933 0.695478 -0.074898
-0.169592 0.695920 -0.074963
-0.169251 0.696362 -0.075028
-0.168927 0.696857 -0.075104
-0.168610 0.697374 -0.075184
-0.168293 0.697891 -0.075265
-0.167994 0.698513 -0.075348
-0.167700 0.699158 -0.075432
-0.167405 0.699804 -0.075515
-0.167134 0.700542 -0.075610
-0.166865 0.701288 -0.075705
-0.166595 0.702062 -0.075801
-0.166264 0.704090 -0.075887
-0.165933 0.706117 -0.075974
-0.165606 0.707989 -0.076059
-0.165303 0.708776 -0.076130
-0.165000 0.709562 -0.076202
-0.164691 0.710283 -0.076269
-0.164361 0.710785 -0.076320
-0.164032 0.711286 -0.076371
-0.163700 0.711756 -0.076416
-0.163366 0.712163 -0.076449
-0.163032 0.712569 -0.076481
-0.162694 0.712944 -0.076510
-0.162349 0.713279 -0.076533
-0.162005 0.713613 -0.076556
-0.161654 0.713914 -0.076574
-0.161297 0.714188 -0.076589
-0.160940 0.714462 -0.076603
-0.160577 0.714679 -0.076615
-0.160211 0.714865 -0.076625
-0.159846 0.715051 -0.076635
-0.159465 0.715196 -0.076643
-0.159080 0.715328 -0.076649
-0.158695 0.715459 -0.076655
-0.158297 0.715560 -0.076658
-0.157897 0.715655 -0.076660
-0.157497 0.715750 -0.076662
-0.157074 0.715815 -0.076659
-0.156650 0.715879 -0.076657
-0.156226 0.715943 -0.076654
-0.155797 0.716002 -0.076652
-0.155369 0.716062 -0.076650
-0.154938 0.716120 -0.076648
-0.154499 0.716172 -0.076646
-0.154060 0.716225 -0.076644
-0.153620 0.716276 -0.076642
-0.153176 0.716323 -0.076643
-0.152732 0.716370 -0.076643
-0.152286 0.716418 -0.076644
-0.151839 0.716466 -0.076646
-0.151391 0.716513 -0.076648
-0.150941 0.716563 -0.076649
-0.150488 0.716616 -0.076648
-0.150036 0.716669 -0.076646
-0.149583 0.716722 -0.076645
-0.149130 0.716775 -0.076645
-0.148678 0.716828 -0.076644
-0.148222 0.716878 -0.076644
-0.147765 0.716925 -0.076643
-0.147308 0.716973 -0.076643
-0.146850 0.717022 -0.076643
-0.146392 0.717072 -0.076643
-0.145934 0.717122 -0.076643
-0.145477 0.717176 -0.076644
-0.145019 0.717230 -0.076645
-0.144561 0.717285 -0.076647
-0.144106 0.717351 -0.076650
-0.143651 0.717417 -0.076653
-0.143197 0.717484 -0.076657
-0.142746 0.717558 -0.076662
-0.142295 0.717631 -0.076668
-0.141844 0.717707 -0.076673
-0.141395 0.717789 -0.076678
-0.140947 0.717872 -0.076684
-0.140498 0.717957 -0.076690
-0.140051 0.718047 -0.076697
-0.139604 0.718137 -0.076704
-0.139157 0.718230 -0.076713
-0.138709 0.718328 -0.076724
-0.138262 0.718425 -0.076735
-0.137814 0.718527 -0.076746
-0.137365 0.718632 -0.076756
-0.136916 0.718737 -0.076767
-0.136469 0.718847 -0.076779
-0.136023 0.718959 -0.076793
-0.135578 0.719071 -0.076806
-0.135135 0.719192 -0.076817
-0.134695 0.719317 -0.076828
-0.134254 0.719442 -0.076839
-0.133817 0.719569 -0.076850
-0.133379 0.719696 -0.076860
-0.132942 0.719824 -0.076871
-0.132508 0.719959 -0.076882
-0.132074 0.720095 -0.076893
-0.131639 0.720229 -0.076905
-0.131181 0.720325 -0.076941
-0.130724 0.720421 -0.076976
-0.130269 0.720526 -0.077009
-0.129832 0.720682 -0.077027
-0.129395 0.720837 -0.077046
-0.128958 0.720992 -0.077065
-0.128519 0.721148 -0.077084
-0.128080 0.721303 -0.077104
-0.127642 0.721461 -0.077123
-0.127203 0.721623 -0.077141
-0.126765 0.721785 -0.077159
-0.126327 0.721950 -0.077176
-0.125890 0.722118 -0.077191
-0.125452 0.722287 -0.077206
-0.125016 0.722461 -0.077220
-0.124582 0.722638 -0.077233
-0.124147 0.722816 -0.077246
-0.123714 0.723001 -0.077259
-0.123282 0.723190 -0.077272
-0.122850 0.723379 -0.077286
-0.122419 0.723576 -0.077300
-0.121989 0.723776 -0.077314
-0.121559 0.723976 -0.077328
-0.121126 0.724181 -0.077346
-0.120693 0.724386 -0.077365
-0.120259 0.724592 -0.077383
-0.119826 0.724799 -0.077402
-0.119393 0.725005 -0.077422
-0.118960 0.725213 -0.077441
-0.118527 0.725423 -0.077461
-0.118094 0.725634 -0.077481
-0.117662 0.725846 -0.077502
-0.117230 0.726062 -0.077522
-0.116798 0.726278 -0.077543
-0.116367 0.726495 -0.077564
-0.115939 0.726715 -0.077585
-0.115511 0.726935 -0.077605
-0.115082 0.727158 -0.077627
-0.114655 0.727386 -0.077651
-0.114227 0.727613 -0.077675
-0.113803 0.727842 -0.077701
-0.113381 0.728071 -0.077729
-0.112959 0.728301 -0.077757
-0.112532 0.728541 -0.077788
-0.112102 0.728790 -0.077822
-0.111672 0.729038 -0.077855
-0.111243 0.729301 -0.077889
-0.110815 0.729569 -0.077925
-0.110386 0.729837 -0.077961
-0.109954 0.730129 -0.077998
-0.109521 0.730427 -0.078036
-0.109088 0.730725 -0.078074
-0.108661 0.731049 -0.078114
-0.108235 0.731375 -0.078154
-0.107810 0.731702 -0.078195
-0.107389 0.732045 -0.078238
-0.106968 0.732388 -0.078280
-0.106549 0.732735 -0.078324
-0.106142 0.733101 -0.078373
-0.105736 0.733468 -0.078422
-0.105329 0.733841 -0.078472
-0.104923 0.734235 -0.078527
-0.104517 0.734628 -0.078583
-0.104107 0.735037 -0.078640
-0.103692 0.735477 -0.078702
-0.103276 0.735917 -0.078764
-0.102858 0.736365 -0.078829
-0.102436 0.736822 -0.078899
-0.102014 0.737279 -0.078969
-0.101591 0.737750 -0.079041
-0.101166 0.738232 -0.079116
-0.100742 0.738714 -0.079191
-0.100319 0.739231 -0.079266
-0.099895 0.739767 -0.079342
-0.099472 0.740302 -0.079418
-0.099053 0.740885 -0.079489
-0.098636 0.741482 -0.079557
-0.098219 0.742080 -0.079625
-0.097818 0.742949 -0.079759
-0.097420 0.743862 -0.079904
-0.097022 0.744775 -0.080048
-0.096671 0.745558 -0.080127
-0.096323 0.746335 -0.080204
-0.095974 0.747118 -0.080279
-0.095606 0.747979 -0.080342
-0.095238 0.748839 -0.080406
-0.094872 0.750170 -0.080580
-0.094511 0.753766 -0.081289
-0.094150 0.757362 -0.081998
-0.093803 0.760128 -0.082526
-0.093490 0.760716 -0.082582
-0.093178 0.761304 -0.082638
-0.092849 0.761822 -0.082685
-0.092496 0.762225 -0.082720
-0.092142 0.762627 -0.082754
-0.091761 0.762966 -0.082784
-0.091350 0.763235 -0.082809
-0.090939 0.763505 -0.082834
-0.090504 0.763759 -0.082853
-0.090053 0.764003 -0.082868
-0.089602 0.764247 -0.082882
-0.089127 0.764445 -0.082886
-0.088642 0.764622 -0.082884
-0.088157 0.764799 -0.082883
-0.087668 0.764982 -0.082867
-0.087177 0.765166 -0.082847
-0.086686 0.765350 -0.082827
-0.086174 0.765496 -0.082794
-0.085659 0.765637 -0.082759
-0.085144 0.765779 -0.082724
-0.084663 0.765961 -0.082702
-0.084182 0.766144 -0.082680
-0.083697 0.766322 -0.082657
-0.083182 0.766470 -0.082624
-0.082666 0.766617 -0.082591
-0.082157 0.766747 -0.082559
-0.081669 0.766810 -0.082534
-0.081181 0.766874 -0.082508
-0.080694 0.766927 -0.082479
-0.080213 0.766954 -0.082445
-0.079731 0.766982 -0.082410
-0.079247 0.767006 -0.082379
-0.078762 0.767025 -0.082355
-0.078276 0.767044 -0.082330
-0.077730 0.767067 -0.082308
-0.077129 0.767095 -0.082287
-0.076529 0.767123 -0.082267
-0.075988 0.767164 -0.082287
-0.075481 0.767211 -0.082330
-0.074975 0.767259 -0.082374
-0.074460 0.767292 -0.082407
-0.073942 0.767321 -0.082437
-0.073424 0.767349 -0.082467
-0.072919 0.767417 -0.082489
-0.072415 0.767492 -0.082509
-0.071912 0.767568 -0.082529
-0.071426 0.767713 -0.082541
-0.070942 0.767863 -0.082554
-0.070458 0.768016 -0.082565
-0.069983 0.768229 -0.082564
-0.069508 0.768442 -0.082563
-0.069035 0.768662 -0.082562
-0.068576 0.768921 -0.082561
-0.068117 0.769179 -0.082559
-0.067655 0.769436 -0.082558
-0.067188 0.769687 -0.082557
-0.066721 0.769938 -0.082557
-0.066255 0.770189 -0.082558
-0.065790 0.770441 -0.082564
-0.065326 0.770692 -0.082571
-0.064863 0.770949 -0.082579
-0.064402 0.771212 -0.082589
-0.063941 0.771476 -0.082600
-0.063481 0.771751 -0.082616
-0.063022 0.772034 -0.082637
-0.062563 0.772318 -0.082658
-0.062104 0.772612 -0.082683
-0.061645 0.772911 -0.082712
-0.061187 0.773209 -0.082740
-0.060724 0.773505 -0.082776
-0.060260 0.773799 -0.082814
-0.059796 0.774093 -0.082852
-0.059323 0.774388 -0.082894
-0.058850 0.774683 -0.082936
-0.058376 0.774979 -0.082978
-0.057903 0.775298 -0.083028
-0.057429 0.775617 -0.083079
-0.056955 0.775938 -0.083129
-0.056471 0.776275 -0.083184
-0.055987 0.776611 -0.083238
-0.055502 0.776953 -0.083294
-0.055015 0.777315 -0.083353
-0.054528 0.777677 -0.083412
-0.054038 0.778035 -0.083471
-0.053545 0.778387 -0.083530
-0.053053 0.778738 -0.083589
-0.052556 0.779085 -0.083644
-0.052055 0.779425 -0.083696
-0.051553 0.779765 -0.083747
-0.051041 0.780091 -0.083799
-0.050519 0.780404 -0.083849
-0.049996 0.780717 -0.083900
-0.049455 0.781066 -0.083944
-0.048903 0.781438 -0.083983
-0.048350 0.781809 -0.084023
-0.047798 0.782249 -0.084058
-0.047248 0.782715 -0.084091
-0.046697 0.783182 -0.084124
-0.046168 0.783733 -0.084167
-0.045644 0.784302 -0.084213
-0.045120 0.784871 -0.084258
-0.044701 0.785603 -0.084340
-0.281785 0.787896 -0.084125
